# .PCD v0.7 - Point Cloud Data file format
VERSION 0.7
FIELDS x y z
SIZE 4 4 4
TYPE F F F
COUNT 1 1 1
WIDTH 1556
HEIGHT 1
VIEWPOINT 0 0 0 1 0 0 0
POINTS 1556
DATA ascii
-10.864531 6.4395428 1.7540934
-10.537351 6.5139747 1.7890836
-10.213328 6.5993457 1.7904354
-9.945281 6.7605286 1.7939054
3.7991045 6.5231276 1.7969092
13.836864 6.6969643 1.9514977
-16.442488 6.8338037 1.7755004
-16.165649 6.9718146 1.7511992
-15.913066 7.148468 1.7184701
-10.092576 6.8673778 1.7526337
-9.7826223 6.9679012 1.7961118
-9.4526052 7.1091533 1.767071
13.511159 7.0926633 1.9361161
13.670244 6.8941908 1.9430653
-16.883318 7.3137703 1.7435849
-16.63018 7.5456333 1.7434673
-15.750847 7.3170795 1.7701937
-15.517524 7.4805284 1.7960275
-9.6821232 7.2624178 1.8009418
-9.3839598 7.3786802 1.7779667
-9.0332174 7.4593782 1.7743169
-8.7433605 7.5586066 1.8473481
13.14996 7.5411801 1.9215676
13.305343 7.3494368 1.9276868
-16.455133 7.6326289 1.7356567
-16.28714 7.7222166 1.7290592
-15.926173 7.9479918 1.6813768
-9.2369919 7.6276422 1.7943633
-8.9627028 7.7533622 1.7585779
-8.6200733 7.8210011 1.7606065
-8.3330069 7.9391832 1.779549
12.943776 7.7921381 1.9138495
-15.739295 8.0190105 1.6726174
-15.414919 8.2085648 1.6659701
-15.197914 8.3960352 1.6693454
-8.5248404 8.0804501 1.7737803
-8.1908274 8.187871 1.7621515
-7.8771009 8.3140812 1.776825
12.619077 8.197567 1.9037194
-15.013162 8.5133276 1.6675898
-8.0657997 8.4539127 1.7707074
-7.7671957 8.5592966 1.7845975
-7.4280066 8.6625967 1.7592257
-7.1249404 8.7561321 1.6739163
12.264963 8.6343651 1.8941011
12.413793 8.4423771 1.8971803
-7.6250048 8.8166704 1.7609222
-7.3591642 8.933938 1.7907363
-7.0026007 9.0244017 1.7704713
-6.679873 9.1297274 1.7879452
-6.3797398 9.1991081 1.7481202
12.113991 8.8267231 1.891085
-6.957705 9.2199974 1.8061922
-6.5807123 9.3325071 1.7930492
-6.2623248 9.4662304 1.7993077
-5.8760233 9.5240736 1.8338299
8.9540367 9.5485725 1.6079596
-12.432489 9.7989779 1.6772475
-12.230723 9.8868399 1.7591819
-11.984609 9.898407 1.623003
-6.1211143 9.6902018 1.8163583
-5.8207669 9.855073 1.7961116
-5.4014683 9.8293114 1.8946389
-5.153347 9.9719534 1.8892334
8.3289547 9.9149313 1.8233875
8.5264301 9.7237492 1.8024261
8.8558865 9.6739378 1.6131012
-12.105405 10.061113 1.7753888
-11.801263 10.180646 1.7845913
-11.549247 10.334771 1.8056887
-5.6519532 10.03857 1.8041722
-5.402473 10.213788 1.7474957
-5.0506401 10.219841 1.851544
-4.6760707 10.298484 1.9680432
8.232976 10.036724 1.8130194
-11.629612 10.441852 1.6484251
-11.368449 10.573742 1.7484357
-11.10296 10.72611 1.7493205
-5.2045584 10.402419 1.7903181
-4.9901938 10.536044 1.7575122
-4.6819105 10.686191 1.7828366
-10.922739 10.885132 1.7365886
-10.663752 11.064845 1.763014
-4.8467712 10.834964 1.8630079
-4.5544209 10.949691 1.8102722
-4.2505603 11.07798 1.7919872
-3.9472239 11.163159 1.8999109
-3.2127872 11.189022 1.6011565
-10.451969 11.243461 1.7380073
-10.201417 11.414077 1.7709615
-9.9651899 11.580324 1.7652277
-4.1520057 11.320222 1.8576435
-3.8308849 11.436488 1.8150676
-3.5389824 11.527506 1.8753219
-2.9799643 11.331406 1.6304575
-2.6833687 11.527836 1.652481
-9.7785215 11.722339 1.7545816
-9.4830132 11.925224 1.7626343
-3.7223568 11.672139 1.899263
-3.394614 11.791472 1.7974277
-3.0808363 11.91508 1.7560697
-2.4939032 11.631639 1.6617367
-2.1670728 11.858281 1.6841516
-1.9636862 11.973055 1.7374871
-9.3077993 12.076692 1.7439189
-9.0247507 12.231824 1.7042372
-8.6947889 12.330756 1.6562634
-3.2820208 12.062248 1.9622127
-2.9776576 12.147264 1.8463062
-2.6519594 12.279659 1.8080796
-2.3792975 12.392839 1.6792763
-1.7749346 12.129777 1.7236247
-1.5029582 12.320436 1.7301515
-8.8692751 12.468013 1.7162161
-8.6511736 12.517541 1.7572514
-8.167614 12.654556 1.7581834
-7.9705076 12.782061 1.8038374
-2.8195164 12.426402 1.9703269
-2.5560024 12.508259 1.8963544
-2.2353663 12.645822 1.8767545
-1.9315904 12.744369 1.7942524
-1.321825 12.539133 1.8160629
-1.0094192 12.661213 1.8298259
-0.77591085 12.786166 1.9021548
-7.767622 12.906935 1.8201289
-7.5622797 13.036902 1.8744588
-2.4327426 12.89801 1.8580356
-2.1172726 12.854697 1.8482825
-1.7967228 13.019597 1.7827075
-1.4730231 13.095059 1.7397977
-0.81277728 12.80467 1.7140607
-0.5993197 12.90974 1.8803923
-0.32373711 13.078283 1.9027233
-1.6381071 13.232501 1.6879715
-1.3793787 13.363653 1.7517128
-1.0488683 13.491231 1.6972891
-0.091167569 13.267365 1.8069627
0.08031702 13.379987 1.8299462
-0.94875199 13.739114 1.7861903
-0.63393402 13.848123 1.7086669
-0.30844975 13.949109 1.7042162
-0.52211797 14.088389 1.8274878
-0.20155057 14.199443 1.7554867
0.12315369 14.317458 1.754922
-0.086314708 14.457176 1.9184803
0.20961827 14.566997 1.8304067
0.54648608 14.670194 1.8014989
0.81051064 14.782344 1.822225
0.36147261 14.820911 1.9333924
0.65139693 14.948787 1.8513496
0.92529619 15.044828 1.8261189
1.2212584 15.087066 1.8796238
1.0676264 15.320683 1.7740059
1.2626981 15.455142 1.7104245
-0.40890527 -7.6117702 2.0795407
-0.13062851 -7.8029146 2.100801
0.17446132 -7.7888989 2.112854
0.52617824 -7.6446991 2.1025972
-0.47286886 -7.4498711 2.0196888
-0.30817059 -7.4962521 2.05935
0.2809695 -7.4951172 2.0629427
0.65781134 -7.4621239 2.0917051
0.99509257 -7.3519325 2.1126039
1.293951 -7.2534828 2.1544871
-0.088223577 -6.8793726 2.132019
0.065834127 -7.0649433 2.1988869
0.71006799 -7.181118 2.0127079
1.0416471 -7.1304383 2.0687973
1.4114242 -7.09481 2.1562343
1.7549185 -6.9128208 2.1847253
-0.26326644 -6.6677055 2.0561054
1.941157 -6.749599 2.1907649
2.185462 -6.5736547 2.190599
2.4238269 -6.4241443 2.2283776
2.3814552 -6.3683839 2.197345
2.6209698 -6.2213664 2.1527412
2.8632348 -6.0492058 2.1630924
2.793823 -5.992178 2.1212096
3.0435441 -5.8790994 2.1573837
3.3214447 -5.6953135 2.1676686
3.4906497 -5.5115418 2.1812561
3.7286899 -5.3220124 2.2252636
3.8839729 -5.0846682 2.1590645
4.0864382 -4.9455409 2.2074807
4.2481537 -4.6842852 2.147191
4.4986267 -4.4929686 2.1607196
-14.515497 -4.1336298 2.2373538
4.6891575 -4.2867913 2.1621046
4.941113 -4.1381888 2.1815963
5.3519764 -4.1547575 2.1751361
5.795785 -4.0556703 2.2042868
5.103375 -3.9208138 2.1908259
5.365808 -3.7388182 2.2230196
5.8440118 -3.7298279 2.160732
6.1738863 -3.8168201 2.2821548
6.4577775 -3.634788 2.1479378
5.5193591 -3.5523696 2.2247529
5.8025374 -3.4151621 2.2021959
6.1835718 -3.3350239 2.159024
6.5823131 -3.4419403 2.1414518
6.9464078 -3.2985218 2.1001239
5.8976798 -3.1684132 2.3335881
6.296268 -3.0706694 2.1250317
6.5767727 -2.9919317 2.1771731
6.9086428 -2.8981321 2.2107949
7.423912 -2.985996 2.2059381
7.659924 -2.843806 2.2969236
6.6446414 -2.6886096 2.0807085
7.0281715 -2.62323 2.2113137
7.317791 -2.4818296 2.2119756
7.8617144 -2.7011328 2.325947
8.157979 -2.5101135 2.3592615
7.0621076 -2.2958217 2.1484163
7.4457459 -2.259789 2.1868539
7.7487211 -2.1234188 2.1761489
8.2275362 -2.1866863 2.2051017
8.4742804 -2.1500762 2.1128151
7.5102258 -1.9361142 2.2327955
7.8579168 -1.8742777 2.2378182
8.1816463 -1.7776369 2.1954534
8.5489321 -1.7562345 2.1891558
8.9846106 -1.7310066 2.1539135
-12.978921 -1.2776618 2.3674722
7.939537 -1.5517502 2.3129413
8.3128996 -1.4588763 2.2212343
8.5869312 -1.3354963 2.2125645
9.1569624 -1.5719688 2.0949044
9.4188395 -1.4295918 2.2213221
9.694869 -1.274011 2.2060564
-16.846523 -0.99806207 2.1101065
-16.633663 -0.94367373 2.2696314
-12.98811 -1.0037109 2.3662639
8.6966248 -1.0985931 2.1826127
8.9545155 -0.93247545 2.1740072
9.8738804 -1.1166002 2.2015786
10.170827 -0.93359381 2.2289143
-13.725985 -0.48027164 2.1930459
-12.972438 -0.60478896 2.3606637
9.0844946 -0.71733665 2.1770892
9.3673315 -0.58457595 2.2110913
9.6338196 -0.43095258 2.2960646
10.332664 -0.75949872 2.3336413
10.550165 -0.61174011 2.3737345
11.022107 -0.59434581 2.2623324
11.267476 -0.4426043 2.3089273
-13.824488 -0.20850322 2.3071349
-12.990628 -0.20735064 2.3645201
9.5062733 -0.32831395 2.227133
9.796361 -0.22445291 2.2331686
10.08614 -0.074473485 2.1532419
11.191843 -0.382429 2.2973037
11.43378 -0.30283162 2.3416922
-14.14413 0.24563196 2.3934159
-13.850768 0.20089409 2.3098495
-13.108565 0.042316113 2.3899696
10.231455 0.13738495 2.188426
10.563044 0.28457165 2.1641474
10.906835 0.32439867 2.1810131
-18.055105 0.73129952 2.0131068
-14.123613 0.55701411 2.398665
-13.824708 0.61243159 2.3134584
10.658938 0.50553483 2.1711595
11.037495 0.57694227 2.1835241
11.334843 0.69737583 2.1967819
-18.096626 1.0424201 2.1820765
-17.846321 1.1125996 2.2157595
-14.819803 1.0788597 2.2574711
-14.794035 0.95849222 2.250854
-13.837428 0.98566645 2.3071475
11.114185 0.90031874 2.1050668
11.411865 0.93037599 2.1845148
11.77634 1.0495114 2.2335813
-18.09527 1.2057738 2.2747467
-17.767229 1.312021 2.2232602
-17.442831 1.4712096 2.200922
-15.276059 1.5555841 2.2996256
-14.836323 1.3973268 2.267122
-14.113467 1.3737794 2.2934873
-13.974623 1.2254789 2.2961082
12.18067 1.3606496 2.2282968
12.436887 1.5661614 2.2774637
-17.256498 1.6802907 2.1709836
-17.036066 1.8098021 2.1755512
-16.680706 1.9744308 2.1632035
-15.277344 1.8086128 2.3080742
-14.805614 1.6862708 2.2690821
-14.641452 1.8612454 2.2765703
-14.32164 1.6589909 2.257395
12.588562 1.705441 2.2560792
12.910739 1.9361786 2.1242118
-18.053482 2.374635 2.2369008
-16.478088 2.0481296 2.1965587
-16.178343 2.2336192 2.1934257
-15.798385 2.3071833 2.2587032
-15.242754 2.1350865 2.3129032
-15.109827 2.2858791 2.311579
-14.707067 2.1487021 2.2847991
13.072151 2.1969595 2.1098821
-17.721823 2.5236907 2.2657778
-17.437014 2.7069397 2.2348623
-17.1082 2.6864884 2.0094147
-15.758633 2.5258389 2.2317283
-15.488197 2.7244666 2.2065234
-15.066815 2.6084528 2.3271699
-11.857144 2.7089682 2.3507857
13.193878 2.4111514 2.0540581
13.369669 2.574764 2.1655173
13.624557 2.7514203 2.2634416
-17.250534 2.8447084 2.2358806
-17.005581 2.9880099 2.2068126
-16.722977 3.1448653 2.1729486
-15.285585 2.8707793 2.2068183
-15.015641 3.0568447 2.2219048
-14.751039 3.173975 2.1163096
13.786383 2.8789806 2.2329555
14.060623 3.0822453 2.2478323
-16.57946 3.2211781 2.1556287
-16.11429 3.370775 2.1875463
-15.837541 3.4997923 2.2579763
-14.85363 3.2353961 2.2978396
-14.598856 3.3990517 2.1769719
-14.387694 3.5107541 2.1116285
-15.630724 3.6196303 2.2302999
-15.401793 3.7525136 2.2003059
-15.07528 3.933912 2.1694782
-14.54015 3.7242317 2.2166893
-14.198376 3.8532071 2.1753318
-13.944505 3.9668427 2.1787004
-14.882975 4.0410671 2.1110177
-14.5891 4.1722283 2.183202
-14.173236 4.1392736 2.2521667
-13.782235 4.168632 2.1703258
-13.515383 4.3362441 2.1982565
-14.146543 4.60567 2.0974081
-13.755637 4.5924726 2.1635022
-13.353101 4.5155129 2.1816299
-13.050272 4.6748347 2.1969028
-13.328851 4.9279552 2.1926248
-12.952742 4.9378729 2.1885545
-12.611457 5.0178895 2.1892343
-12.341138 5.1615605 2.2099879
-12.899449 5.2760262 2.2625847
-12.550194 5.3611193 2.2379224
-12.179585 5.3738346 2.1989541
-11.837345 5.5212564 2.1730711
-11.52844 5.5554867 2.1693764
-12.440567 5.6330643 2.3582559
-12.104312 5.6527376 2.1982379
-11.757713 5.7424583 2.1420345
-11.374962 5.7529306 2.1703217
-11.089272 5.9165244 2.1683352
-10.746201 5.9427524 2.3599885
3.8997531 5.9549017 2.1912289
4.1574359 5.9239855 2.1991189
-17.070265 6.3361721 2.2893825
-11.663527 6.1240349 2.3962312
-11.405756 6.1489367 2.2499177
-10.925183 6.1133366 2.1793742
-10.633364 6.267632 2.1786985
-10.26024 6.3648019 2.0688653
3.5285857 6.3518605 2.148133
3.8288333 6.1845512 2.1334345
4.0335507 6.04143 2.1037908
-16.892612 6.4619064 2.2798507
-16.619705 6.6562119 2.2663023
-16.361559 6.7982869 2.2490668
-10.890448 6.4402809 2.389291
-10.511814 6.4870272 2.2366757
-10.209352 6.6031661 2.1505353
-9.9467201 6.7387772 2.1100187
3.8159575 6.5256157 2.1743977
-16.147333 6.9205313 2.2360213
-15.928385 7.120594 2.2329757
-10.110047 6.8727074 2.2761941
-9.7960548 6.9910846 2.1731732
-9.4631052 7.0956893 2.1565208
-16.529905 7.4257302 2.2365963
-16.324371 7.5561304 2.2275853
-15.722486 7.2681909 2.2256694
-15.520452 7.3772693 2.2129865
-9.6813374 7.2608843 2.1991708
-9.4034719 7.3907075 2.1822748
-9.0856724 7.5088229 2.1806476
-16.153965 7.6727629 2.2217064
-15.847903 7.8278451 2.2050848
-15.531484 7.9159255 2.1792896
-9.2683306 7.634418 2.2791307
-8.971755 7.7477217 2.1889195
-8.6683025 7.8919287 2.1868827
-8.3460627 7.9565639 2.1083031
12.89278 7.8673425 2.0631943
-15.384514 8.1424932 2.1928847
-15.08367 8.3375244 2.1854599
-8.5190229 8.0859385 2.1965287
-8.2345772 8.2415609 2.1844778
-7.9310865 8.3387871 2.19116
12.598517 8.2250471 2.1804724
-14.922837 8.4382286 2.1815796
-8.0655594 8.4500065 2.1345072
-7.7975245 8.5996885 2.1672788
-7.4829407 8.7320538 2.1937277
12.265255 8.6408739 2.2227163
12.429509 8.4345198 2.217618
-13.005673 9.1413498 2.0504687
-12.662529 9.0708456 2.0826373
-7.6111999 8.8165112 2.1518211
-7.3674603 8.9308729 2.1577868
-7.0086117 9.0866232 2.1940796
-6.7550812 9.1647291 2.1801267
12.114865 8.827055 2.2077856
-12.902285 9.2721834 2.0154042
-12.575367 9.4277086 2.0755084
-12.352814 9.5711117 2.0712423
-6.9485807 9.2202091 2.1738443
-6.5759668 9.3303928 2.1639493
-6.2919402 9.5121183 2.181519
-5.859405 9.5011597 2.3730135
8.944253 9.5166111 2.0843666
-12.452864 9.66924 2.320601
-12.193834 9.8174257 2.1929812
-11.931 9.957262 2.1108959
-6.1129675 9.6863346 2.1956649
-5.8472276 9.8766527 2.2120967
-5.5973644 9.9957047 2.1524348
8.3743057 9.9405069 2.2089031
8.5966597 9.7637911 2.1970613
8.8518085 9.6553516 2.0981145
-12.028927 10.018619 2.28613
-11.797251 10.123304 2.1549177
-11.494018 10.319077 2.0893693
-5.6589618 10.04523 2.2300282
-5.4063292 10.223002 2.2049854
-5.090507 10.311877 2.1827462
-4.626987 10.314457 2.0427959
8.3082523 10.037201 2.1849511
-11.643022 10.437205 2.191608
-11.37186 10.53782 2.1770368
-11.050292 10.684486 2.1562376
-5.2728453 10.50059 2.2324591
-5.0644116 10.51964 2.201405
-4.5762453 10.605109 2.0544047
-4.2179575 10.574688 2.0708909
-10.874122 10.865687 2.1671445
-10.60624 11.052892 2.1866529
-10.364771 11.19628 2.2171078
-4.8744473 10.860843 2.2266781
-4.6117601 11.022382 2.2240634
-4.2494898 11.076384 2.1078022
-3.8063848 11.028096 2.1872957
-3.5639279 11.184432 2.2423396
-10.433465 11.214198 2.1283457
-10.195257 11.368894 2.1586444
-9.9358072 11.548849 2.1491709
-4.435708 11.225024 2.2520626
-4.1876593 11.345638 2.2467198
-3.8720169 11.479306 2.1841319
-3.3701918 11.370633 2.2501531
-3.0726144 11.50332 2.3293903
-2.7149875 11.475242 2.2941673
-9.7607965 11.730552 2.1044257
-9.5042849 11.942643 2.0813601
-3.7388277 11.694156 2.2312443
-3.4531217 11.860682 2.175621
-2.9821143 11.73833 2.2507815
-2.6237016 11.791868 2.3723514
-9.3349962 12.069295 2.0776494
-9.0525246 12.274295 2.095351
-3.294693 12.075883 2.1916559
-3.0209377 12.253489 2.1967916
-2.704339 12.303993 2.1162241
-2.2609792 12.111388 2.3754056
-8.8492489 12.434262 2.1105201
-8.6960249 12.532053 2.1009896
-2.8570879 12.451879 2.2459033
-2.6023283 12.569077 2.2154591
-2.217521 12.719483 2.2128425
-1.9618087 12.766373 2.0866883
-2.4464293 12.859362 2.147342
-2.1851747 12.850315 2.1652431
-1.805005 12.99789 2.1776316
-1.5132515 13.133858 2.1753466
-0.19669338 13.148773 2.0132179
-1.6362574 13.226839 2.102783
-1.3775291 13.349737 2.1766708
-1.066745 13.496629 2.1530056
-0.054159928 13.239238 2.0378525
0.18696117 13.396158 2.0811551
0.45479584 13.588017 2.138484
-0.94628841 13.733521 2.1976726
-0.65541542 13.868649 2.1820869
-0.33642644 13.952509 2.1911869
0.63651741 13.705218 2.1718822
0.84892297 13.831095 2.2092721
-0.49293369 14.091646 2.1866305
-0.27252474 14.127204 2.2166169
0.12161148 14.321341 2.2747841
1.4103241 14.352145 2.3401368
-0.24636802 14.504717 2.305521
0.21593334 14.666578 2.2751582
0.52240866 14.706879 2.3310308
1.5531223 14.446969 2.3674293
1.6172473 14.47577 2.3774652
0.28698471 14.878287 2.221101
0.56902128 15.020776 2.2207479
0.86194032 15.080914 2.3782454
0.72555363 15.2576 2.219203
0.96854985 15.331056 2.1259122
1.2404547 15.45004 2.0759778
0.63234633 -7.6368527 2.4212487
-15.381366 -7.3039284 2.52845
0.73927742 -7.5490942 2.4196167
0.97880757 -7.3551126 2.4186063
-15.658214 -6.866487 2.6486335
-15.52486 -7.0572548 2.6382978
1.1737411 -7.1900678 2.4176781
1.3870996 -7.0991025 2.4383605
1.7671446 -6.9454837 2.4848828
-15.86482 -6.5700707 2.6429543
-14.348593 -6.7167559 2.6958966
1.9724801 -6.782052 2.4900122
2.2002995 -6.5821061 2.4979646
2.4277837 -6.4165421 2.5144694
-16.129904 -6.1733251 2.6234517
-15.983992 -6.3743095 2.533864
2.6260483 -6.2412343 2.5253909
2.9175181 -6.0328588 2.4834182
-16.442177 -5.6555023 2.573204
-16.319506 -5.8544006 2.5621507
-13.167582 -5.9023671 2.4248292
3.0757501 -5.9023304 2.538094
3.3043158 -5.6979856 2.6144028
-16.606123 -5.392529 2.5894129
3.5147521 -5.5456772 2.6616833
3.7754614 -5.3285708 2.6157422
-16.890089 -4.9533982 2.621002
-16.759193 -5.1512942 2.6056855
-11.909821 -5.0271935 2.4691074
3.9423711 -5.0950913 2.6252234
4.1502252 -4.9237704 2.5588245
4.4237008 -4.8140125 2.4359269
4.2814417 -4.6842046 2.5952652
4.5627832 -4.5777817 2.5158124
4.9280009 -4.4853907 2.6138051
-14.241041 -4.0150661 2.5626807
4.710084 -4.3145318 2.5811205
4.9692492 -4.1588774 2.5644391
5.3720551 -4.1734872 2.6505527
5.8029594 -4.0808854 2.5006797
-14.271901 -3.9584999 2.5661864
5.1294584 -3.9392898 2.4971447
5.3987546 -3.7408652 2.5275669
5.9160213 -3.7862577 2.5224409
6.2503576 -3.7468612 2.5658777
6.4538789 -3.6368477 2.5719929
5.5593033 -3.5597758 2.5372002
5.7900662 -3.4165862 2.560986
6.2122221 -3.3391716 2.5458794
6.5970902 -3.4552352 2.5410159
6.9272585 -3.3253453 2.632442
6.3207068 -3.125308 2.5106823
6.5996733 -3.0180905 2.5436463
6.9247026 -2.8997226 2.5855064
7.3876886 -2.9915791 2.6664767
7.6202331 -2.8411038 2.7220247
6.7582884 -2.759876 2.5625415
7.0432844 -2.6589828 2.6004317
7.3467789 -2.5107787 2.6173751
7.7976289 -2.7081478 2.7648194
8.2012138 -2.5060461 2.4378355
-12.438063 -2.1643608 2.4449301
-12.386003 -2.3596909 2.4442432
-11.566231 -2.0549431 2.5444081
7.4585762 -2.2473266 2.5788636
7.7575498 -2.1541426 2.6040614
8.0875425 -2.041333 2.7306983
8.4874191 -2.2220633 2.4896216
-12.580947 -1.7859784 2.4497058
-12.289725 -1.7789084 2.4214904
-11.777892 -1.7790883 2.6206093
7.8665218 -1.8879036 2.6164289
8.1531258 -1.7770934 2.5751975
8.5468397 -1.7594012 2.6047409
8.9991789 -1.7617681 2.6411114
9.2021856 -1.6151623 2.6661606
-17.785843 -1.2652718 2.7991152
-12.610379 -1.4056741 2.4430363
-12.185095 -1.3667704 2.587275
-11.962465 -1.5348474 2.6708901
8.3153601 -1.5084732 2.57586
8.5764103 -1.3532283 2.6207063
8.8096342 -1.2939348 2.553098
9.3601341 -1.4166405 2.7046182
9.765275 -1.2762101 2.5738831
-17.791893 -1.1075363 2.7992918
-16.491716 -0.85917783 2.6984379
-13.331148 -0.88672018 2.5294254
-12.558122 -0.95221776 2.4983134
-12.31054 -1.084002 2.6079328
5.8166442 -1.0506995 2.715858
8.7051554 -1.0781251 2.5972548
8.9419518 -0.9260447 2.5710654
9.3940325 -1.142897 2.7157481
9.9221354 -1.1507638 2.5020447
10.198022 -0.96390212 2.5855548
-17.799025 -0.64279526 2.7996242
-16.52249 -0.73620236 2.6104901
-13.359452 -0.6036557 2.5332782
-12.824707 -0.41673487 2.7608078
-12.664298 -0.60773385 2.5196459
-9.4511528 -0.45539901 2.5217223
5.944428 -0.45405912 2.7612741
6.0021505 -0.44122362 2.7602193
9.0486164 -0.69096047 2.6075132
9.36796 -0.56871092 2.5975959
9.6311789 -0.42505392 2.6074932
10.596206 -0.72606677 2.5829773
10.994608 -0.58694643 2.5756187
11.252452 -0.43388948 2.6723359
-17.798227 -0.38009393 2.7999604
-13.755607 -0.15492277 2.5317593
-13.356729 -0.20984481 2.5303614
-12.947259 -0.20222427 2.5522687
-12.794377 -0.37918913 2.489584
-9.4553165 -0.37236655 2.521678
5.8749032 -0.29159173 2.7682688
6.0121193 -0.30786195 2.762907
8.7862301 -0.14400971 2.7590368
8.8233929 -0.27896273 2.7657585
9.5167627 -0.33594257 2.6617281
9.8006983 -0.21993284 2.6329069
10.095181 -0.080940112 2.6079848
11.065584 -0.35977668 2.468596
11.218964 -0.34376258 2.5257411
-13.77669 0.19469365 2.5429757
-13.317597 0.24853893 2.5631175
-13.151729 0.074460879 2.5633452
9.9484148 0.044141412 2.6027999
10.237407 0.12983178 2.6000845
10.600449 0.24013351 2.578867
10.899024 0.32615846 2.61779
-14.568699 0.76760417 2.4699452
-14.154201 0.61093891 2.4069369
-13.675903 0.67028201 2.6255782
-13.48002 0.54421377 2.6035793
10.391916 0.4174664 2.5376658
10.526593 0.46531048 2.5658135
11.054444 0.56161237 2.6062059
11.330042 0.68704391 2.6307507
-18.07976 0.86593914 2.6973193
-17.834007 1.0528005 2.6909795
-14.578879 1.0015082 2.4795358
-14.082721 1.0142249 2.4459877
-13.797179 0.97438288 2.6532857
-13.56878 0.8052063 2.6027808
11.123417 0.86263883 2.5195866
11.393538 0.89313102 2.5871584
11.799186 1.0463439 2.597805
-17.741488 1.3064548 2.642781
-17.439861 1.4566855 2.6818666
-17.131075 1.5498929 2.6174908
-14.886241 1.4329009 2.5523837
-14.629245 1.4369469 2.5348887
-14.134501 1.4288926 2.573637
-13.960095 1.2551506 2.6413975
11.996186 1.2300575 2.4604287
12.211644 1.3710804 2.5588474
12.454577 1.5507044 2.6100221
-17.30592 1.7146497 2.6524444
-16.999172 1.7987622 2.5686324
-16.671917 1.9198265 2.502285
-14.924512 1.799893 2.4935861
-14.545782 1.8310981 2.5757403
-14.289948 1.7548807 2.6245086
12.616696 1.7142388 2.5814118
12.925074 1.9155875 2.5279689
-18.064287 2.2666798 2.6019681
-17.871794 2.364219 2.6147876
-16.934872 2.0398967 2.6388266
-16.563593 2.069447 2.6422622
-16.212019 2.2221251 2.5922344
-15.942573 2.3644667 2.6168492
-15.431276 2.2440951 2.5285506
-14.85805 2.2568219 2.5819838
-14.642625 2.1821666 2.6256826
-14.181437 2.1995749 2.695411
-13.749562 2.1890607 2.6391075
13.093724 2.1961198 2.5776432
13.219688 2.1370797 2.5306146
-17.705242 2.541899 2.5609276
-17.400331 2.6151817 2.603152
-17.089174 2.7544296 2.5712512
-16.041 2.4145818 2.5485539
-15.781606 2.5453615 2.5920715
-15.413444 2.6830258 2.5966973
-14.994409 2.6208792 2.6649349
-14.735962 2.5133066 2.6102061
-14.11964 2.6210761 2.7423499
-13.962495 2.5481036 2.6692793
-11.935368 2.7136714 2.4126863
13.338819 2.5283639 2.6078584
13.674778 2.7510345 2.6299143
-17.389814 2.91835 2.5204999
-16.966719 3.0163357 2.4983716
-16.59618 3.0766716 2.4962633
-15.280918 2.8803091 2.5580077
-15.018111 3.0372574 2.6276205
-14.772258 3.1785614 2.5919688
-14.13234 2.9271448 2.7402389
-11.90772 2.8177905 2.4132466
10.703064 3.1656127 2.73508
13.847949 2.9155962 2.5473893
14.048526 3.0570843 2.6380484
-16.83321 3.2146473 2.438494
-16.687355 3.2410374 2.4130924
-16.165882 3.2940021 2.42769
-15.719616 3.4584632 2.7746434
-15.543385 3.5612819 2.746057
-14.829364 3.2236488 2.6290598
-14.579196 3.3953276 2.6077468
-14.260339 3.5491018 2.6498468
-8.8340912 3.4158642 2.5148511
-8.7916489 3.5591192 2.5180292
10.682207 3.2616384 2.7377574
15.106964 3.4856274 2.4512105
15.251786 3.5931442 2.482245
-15.352915 3.6787751 2.7163205
-15.015823 3.8680384 2.6628792
-14.54992 3.743511 2.6242321
-14.194486 3.7723858 2.607748
-13.887767 3.928421 2.6100099
-8.8693905 3.9171386 2.5739064
-8.7634907 3.7084205 2.526098
15.38254 3.6996396 2.5108409
-14.571533 4.1257539 2.5956926
-14.167668 4.2115512 2.5777192
-13.757054 4.1541257 2.5762727
-13.459964 4.2566752 2.5906494
-13.177293 4.3742714 2.6946564
-9.3838339 4.2664547 2.5893497
-9.0503368 4.1499801 2.6433785
-14.158678 4.5899296 2.5861087
-13.808827 4.6669264 2.6030786
-13.333109 4.5265756 2.509022
-13.014966 4.6572146 2.6168787
-12.717049 4.7387357 2.6621902
-9.6820946 4.6250772 2.448875
-9.3707037 4.552989 2.6674626
-13.675139 4.8655357 2.5878999
-13.382859 5.0398302 2.5632448
-12.98767 5.0013762 2.5353806
-12.607077 4.9692464 2.6412222
-12.309085 5.1272235 2.6306596
-10.148265 5.1231756 2.5509937
-9.6773901 4.9787378 2.5629709
-9.5684109 4.859643 2.7002201
-13.330474 5.3317986 2.7429342
-12.984296 5.3436446 2.5602283
-12.639387 5.3991475 2.5438428
-12.123859 5.3064008 2.5730784
-11.829189 5.4940033 2.5601888
-11.563978 5.5806541 2.4595625
-10.134716 5.3717804 2.5653791
-9.8897619 5.285697 2.5598843
14.972135 5.3380609 2.5437546
-12.570481 5.6996684 2.6220145
-12.195855 5.8172364 2.5523102
-11.817189 5.8224387 2.5499847
-11.403361 5.7777724 2.5176454
-11.126534 5.9651766 2.5058005
-10.422606 5.9437981 2.7435656
-10.253389 5.7713985 2.6502304
3.8740704 5.9662933 2.4317973
4.2985888 5.8720984 2.5880764
-12.151205 6.0842662 2.6552932
-11.751439 6.169384 2.5590744
-11.507872 6.2856812 2.5183089
-10.963117 6.144845 2.5032012
-10.653275 6.267374 2.5563111
-7.2454681 6.2891049 2.5409312
-7.1628847 6.3937516 2.542568
3.7901959 6.1392241 2.4172888
4.2333698 6.0348096 2.7571685
-10.885137 6.4574852 2.4875991
-10.558162 6.5254502 2.5131462
-10.245276 6.6817455 2.5083923
-7.1096663 6.4131556 2.535368
3.801935 6.5837216 2.5857313
4.8353238 6.5236011 2.7973373
13.846045 6.6757751 2.4576931
-10.085423 6.8561668 2.5296729
-9.8560457 7.0241179 2.5263937
-9.5956755 7.1897311 2.6364627
3.8383262 6.8387995 2.7568121
13.50697 7.0931787 2.4377451
13.669894 6.8965683 2.4473493
-9.7511196 7.2996278 2.463537
-9.4023418 7.4161973 2.5322573
-9.0782661 7.5037289 2.6459517
4.8631253 7.5702534 2.782218
5.7789249 7.2068601 2.7964129
13.166665 7.5276451 2.4216473
13.319957 7.3296881 2.4284604
-9.2585554 7.6384506 2.4363952
-8.9705782 7.7692823 2.5062108
-8.6498623 7.8895302 2.6148129
5.284379 7.8512869 2.7829981
12.798767 7.9966817 2.4069896
12.96723 7.7817488 2.4133923
-8.5338631 8.1045799 2.5102377
-8.2375193 8.2570744 2.5390594
-7.961061 8.3731937 2.5939279
6.8955326 8.1578236 2.7882514
12.630632 8.1974249 2.4987259
-8.1151094 8.4820099 2.5246046
-7.7912412 8.6130371 2.4776163
-7.5061917 8.7440557 2.5183606
-7.1655116 8.7712164 2.5022871
12.265959 8.6494808 2.5617044
12.431464 8.4466324 2.5692177
-7.7172551 8.8649101 2.5634775
-7.389369 8.9533491 2.5006776
-7.0068746 9.1002655 2.5150034
-6.7473645 9.178956 2.4837129
-5.6684027 9.1545 2.7747149
-5.3920956 8.9768648 2.7707939
12.112103 8.8278027 2.5541682
-7.2254667 9.2222157 2.6109509
-6.9412727 9.229888 2.5265594
-6.5782752 9.3569946 2.5088286
-6.2653265 9.4930449 2.5023341
-5.890264 9.5365734 2.525424
-5.4984074 9.2521019 2.776974
8.8945065 9.5301371 2.5619104
-6.141181 9.712698 2.543139
-5.8237357 9.8486595 2.5507612
-5.4018407 9.8384514 2.560714
-5.1467853 9.9711552 2.5511141
8.3394918 9.9206219 2.5704806
8.6332264 9.7387753 2.5988517
8.8202047 9.6366625 2.6135902
-5.6769905 10.056278 2.5829158
-5.4094887 10.23382 2.5964975
-5.0127478 10.172298 2.5977454
-4.6610498 10.31209 2.6913228
4.8549519 10.372427 2.7952805
8.2508183 10.06291 2.6218245
-5.267097 10.477214 2.609724
-5.058682 10.546778 2.5798316
-4.5788145 10.502227 2.6857324
-4.2583699 10.546098 2.7641573
4.7625952 10.437149 2.7950721
-4.8847208 10.880759 2.6130002
-4.6231494 11.027627 2.5951061
-4.3359089 11.15158 2.5702524
-4.4527364 11.242255 2.6410358
-4.2041211 11.386007 2.6234887
-3.8992417 11.51955 2.6358368
-3.5345409 11.452654 2.6692953
-3.0080369 11.520741 2.4220378
-4.0791798 11.667188 2.747834
-3.764931 11.72561 2.6490595
-3.4630821 11.895227 2.5973027
-2.8562484 11.612253 2.4516373
-2.5843213 11.796039 2.4707422
-2.3413994 11.971618 2.4734581
-3.6210384 12.060179 2.7704117
-3.3144228 12.07766 2.6052709
-3.0381558 12.241286 2.5842812
-2.7517629 12.378473 2.6484895
-2.1395237 12.114413 2.5004053
-1.8478912 12.301692 2.5650377
-2.8870304 12.458253 2.6544919
-2.5980608 12.565049 2.6077912
-2.2245986 12.720912 2.5813208
-1.7567631 12.538694 2.5617921
-1.3845825 12.605429 2.648891
-1.0123032 12.665813 2.6861317
-0.77139241 12.784095 2.7516263
-2.4811969 12.85534 2.564676
-2.1459997 12.858738 2.5723999
-1.8068525 13.014253 2.5586674
-1.4829001 13.100908 2.5712588
-0.83662522 12.832279 2.5830998
-0.6279707 12.925151 2.6974013
-0.33413744 13.156235 2.6787834
-1.6388645 13.222874 2.610647
-1.3640025 13.356812 2.5763297
-1.0670422 13.493499 2.5541346
-0.11412553 13.29319 2.7203977
0.090571284 13.435028 2.7628205
-0.94850349 13.714884 2.6239338
-0.650482 13.864388 2.6346257
-0.37223381 13.973308 2.6772714
2.7037039 13.652265 2.7470253
-0.51798826 14.065886 2.6226509
-0.28510371 14.120693 2.6723342
-0.13750464 14.578959 2.4272459
0.13663554 14.736901 2.5417733
0.2906307 14.888573 2.5568671
0.5722512 15.074893 2.5541239
0.72111821 15.239257 2.6068778
0.89555621 15.310875 2.5337775
-15.383018 -7.221827 2.8926642
-15.665254 -6.8924384 2.8362761
-15.434332 -7.0232625 3.0071704
-16.012974 -6.4059191 2.8669105
-15.766271 -6.5882721 2.987695
-15.553383 -6.7289619 3.1454508
-14.858971 -6.5279431 3.1506827
-14.784473 -6.7421365 3.1567104
-14.151687 -6.4610786 3.1567578
-16.077223 -6.1565604 2.9963322
-15.903846 -6.2649531 3.1191113
-14.961727 -6.156662 3.0934258
-16.181866 -5.7940474 3.1234508
-15.202598 -5.6345892 3.1432238
-15.036016 -5.8089371 3.0225177
-14.621822 -5.674202 3.1968575
-16.434986 -5.3503389 3.0628123
-16.276308 -5.432097 3.1568282
-15.280193 -5.4022775 3.1415231
-15.094977 -5.3941374 2.9201775
-14.717175 -5.3842101 3.1905127
-13.512016 -5.2784643 3.0136471
-16.509436 -4.8290534 3.044631
-16.305994 -5.1640701 3.1922154
-15.355633 -4.9766917 3.0458128
-14.933352 -5.0082507 3.1348937
-14.79931 -5.1683817 3.1895168
-13.662302 -4.9548111 3.0139401
-13.569319 -5.1670008 3.0147223
-16.529751 -4.5939436 3.0345783
-16.357449 -4.5792923 3.1691813
-15.450741 -4.5962062 3.0222886
-14.98094 -4.5956526 3.1834517
-13.81935 -4.5984592 3.0139608
-16.533901 -4.1739726 3.088064
-16.383442 -4.3456182 3.1627777
-15.606913 -4.1644802 3.1295698
-15.505616 -4.2424808 2.9731932
-15.063005 -4.1707726 3.1644812
-14.037172 -4.0988727 3.014915
-13.961435 -4.2922335 3.0140245
5.0367246 -4.0411081 2.8079355
5.5311685 -4.0882282 2.8149886
5.6302724 -4.0200224 2.8368123
-16.609997 -3.8064611 3.1012025
-15.448172 -3.7909875 2.9887137
-15.067603 -3.8391421 3.1344073
-14.127805 -3.799387 3.0114551
5.1436605 -3.9257236 2.8250251
5.4023185 -3.7354009 2.8790302
5.8261132 -3.9000981 2.8823242
6.1538577 -3.6976209 2.9604795
6.5675225 -3.6781197 2.8376243
-16.81538 -3.3141601 3.0376973
-16.642771 -3.4462588 3.1251116
-15.643805 -3.3834105 2.9006085
-15.352898 -3.5177336 3.1079094
-15.089526 -3.4295588 3.1106498
-14.239355 -3.3981681 3.0075035
5.5882607 -3.5779061 2.9167967
5.8010144 -3.4087334 2.9632897
6.2888927 -3.3532729 2.9060969
6.5822387 -3.3912928 2.854605
6.834167 -3.2431266 2.8890488
-16.840065 -3.0099597 3.0325882
-16.615307 -2.9850402 3.1128151
-16.009689 -2.8682928 3.1842012
-15.742667 -3.0055821 2.9043245
-15.210655 -2.8652797 3.1072621
-15.054013 -2.9991271 3.0723181
6.296144 -3.1007564 3.016341
6.6195374 -2.985595 2.8783357
6.9848337 -3.0350986 2.9136202
7.3763661 -2.8798189 3.0590894
-17.62463 -2.4633899 3.0385122
-16.87846 -2.6118135 3.0294333
-16.627644 -2.6105263 3.0269959
-16.046124 -2.6047573 3.0178726
-15.809381 -2.5757723 2.9017482
-15.242277 -2.600837 3.1031222
-14.875771 -2.6294894 3.0073509
6.6882586 -2.6955557 2.9021001
6.9753895 -2.5717852 2.9597349
7.3982396 -2.5871761 2.9106803
7.7602978 -2.5798633 3.0680413
8.1269178 -2.5061467 2.8470802
-17.64193 -2.1793027 3.0393775
-16.918144 -2.2166333 3.0292172
-16.654766 -2.2066588 3.0260055
-16.09255 -2.2058501 3.0076208
-15.869373 -2.1907861 2.9017394
-15.312768 -2.1911042 3.1051512
7.1420956 -2.362227 3.0287616
7.4114547 -2.2120335 2.9744363
7.7857404 -2.1362591 2.933569
8.1652613 -2.0693161 2.8477104
8.4609632 -2.1985805 2.9559393
-17.654869 -1.8162845 3.0392611
-16.950615 -1.8237774 3.029901
-16.671738 -1.7925751 3.0332625
-16.126841 -1.8072164 3.0182948
-15.940553 -1.7611722 2.9447129
-15.368473 -1.8027643 3.1075265
7.5895462 -1.9844304 3.1547942
7.8584089 -1.8655293 2.9625962
8.1101494 -1.7112786 2.903141
8.5887909 -1.861011 2.9062376
8.9835587 -1.7408212 3.0189629
9.2304459 -1.6288769 2.8555191
-17.678112 -1.4074762 3.0445092
-16.983114 -1.4081503 3.0329916
-16.670492 -1.400862 3.0428519
-16.157295 -1.3964092 3.0158422
-15.946288 -1.4086078 3.0144336
-15.408274 -1.5500895 3.1111412
-12.091771 -1.2252189 3.0033898
8.2669449 -1.4863242 2.9943576
8.5796871 -1.3297139 2.9881864
9.1195345 -1.3649635 3.0131831
9.3810625 -1.3947557 3.0274825
9.6231785 -1.27958 3.1861594
-17.726925 -0.98412132 2.9316638
-17.410122 -1.0283864 2.9848087
-16.991295 -0.99162191 3.0330822
-16.651525 -0.98425782 3.0307858
-16.127958 -0.99854034 2.9777756
-15.925507 -1.0349758 3.0867801
-12.45216 -0.8863917 2.832963
-12.276343 -0.9862563 2.9541922
-11.215824 -0.87522203 3.0028293
8.696558 -1.076357 3.0165501
8.9615383 -0.94892657 2.9850249
9.7109365 -1.1544884 3.1716015
-17.686604 -0.59243363 2.9699738
-17.019508 -0.60602736 3.0407186
-16.686529 -0.60521621 3.052681
-16.169224 -0.65653181 3.0907493
-15.945693 -0.77250242 3.1145101
-12.631824 -0.58292747 2.8672619
-12.357244 -0.59741694 3.0678234
-11.233891 -0.73897463 3.0047462
5.9073219 -0.4137063 2.8073533
8.638092 -0.59054697 3.0656693
9.0774155 -0.65070033 3.0053647
9.3170795 -0.5481146 2.9912763
9.6615705 -0.42206717 2.8296349
11.095244 -0.61331284 2.8939123
11.239963 -0.40040338 2.9351687
-17.741873 -0.23882541 2.897454
-17.588352 -0.11319262 3.0409174
-17.009033 -0.21692418 3.0415819
-16.688337 -0.27253523 3.0163476
-12.938481 -0.16035314 2.9052093
-12.700364 -0.24006392 2.8980396
-12.37189 -0.20068669 3.0709307
-11.276278 -0.17173825 3.0088329
5.9361401 -0.35258806 2.8153632
8.3243656 -0.13338333 3.1017458
8.6288624 -0.20969713 3.0794046
9.0543537 -0.21477978 3.0381248
9.3632259 -0.25774318 3.0048716
9.8204622 -0.18238361 2.9477119
10.135846 -0.073352776 3.0591984
11.282463 -0.32787538 2.9478896
-17.854687 0.18663239 2.8035674
-17.554453 0.19386008 3.0410876
-16.967489 0.1950258 3.0379167
-13.245744 0.29873648 2.9275668
-13.113856 0.15777868 2.9683156
-12.686687 0.18545693 2.90011
-12.372447 0.19520481 3.0738425
-11.29761 0.20123467 3.0139709
7.9749508 0.37971306 3.0746908
8.1997347 0.24640264 3.0369797
8.5329618 0.16787823 2.9978418
9.0355024 0.20801425 3.0413344
9.348875 0.061315179 2.8908269
9.921546 0.052394707 2.8678501
10.223665 0.17648689 2.9185421
10.593248 0.26111317 2.9559293
10.822492 0.39783427 2.9080589
-17.83012 0.59626752 2.8037174
-17.486366 0.5951761 3.0379338
-16.947823 0.50725543 3.0397654
-13.352295 0.59961063 3.0148413
-12.673143 0.56039238 2.8994415
-12.318134 0.59852785 3.0794497
-11.308631 0.61046255 3.0140393
7.8232951 0.62348753 3.0951695
8.1737957 0.61987573 2.9332907
8.6296062 0.63023323 3.0023012
9.008791 0.54919422 3.0769923
10.39101 0.45267868 2.8895302
10.654611 0.48686564 3.0355852
11.001138 0.61909556 3.017612
11.358224 0.73690081 2.9876556
-18.056499 1.0033914 2.9021797
-17.823442 1.0609423 2.8934915
-17.427126 0.99626225 3.0394349
-14.02879 1.1596681 2.8296456
-13.769916 1.0327801 2.9242024
-13.328481 1.0135577 3.0763938
-12.652246 1.0007358 2.8995795
-12.253677 1.002515 3.078655
-11.294117 0.99412978 3.0034356
7.5418701 1.052135 3.0501146
7.7795343 0.98067325 3.086699
8.1897392 1.0277336 2.9618149
8.5795927 0.90199846 2.9139509
11.111743 0.86433512 3.041002
11.370624 0.94044888 3.021652
11.69098 1.0275494 2.904712
12.006864 1.1897633 2.9145317
-17.714191 1.2757847 2.9306507
-17.46191 1.4210118 2.9685528
-14.164124 1.4191515 2.8627622
-13.654634 1.4108121 2.9904954
-13.347247 1.3646144 3.0642469
-13.190447 1.4869951 3.0683522
-12.62411 1.4191781 2.9022856
-12.20977 1.3960446 3.0818412
-11.255449 1.3865073 3.0041845
7.1884141 1.571021 3.0539608
7.3915091 1.426033 3.0436289
7.8850102 1.4210351 2.9662392
8.1243286 1.3434269 2.9725027
11.871926 1.2885599 2.9701033
12.162374 1.4463882 2.9498198
12.417432 1.4877537 2.8758907
-17.306057 1.6571136 2.9612713
-17.004438 1.8381774 2.882406
-16.775452 1.946698 2.8547668
-14.455949 1.9236581 2.9425912
-14.313667 1.7310688 2.8961468
-13.612676 1.7400991 2.992198
-13.400212 1.8375487 3.0484211
-13.15915 1.8009011 3.0739634
-12.590961 1.8164972 2.9063699
-12.141388 1.8043011 3.0828378
-11.213155 1.6400398 3.0019124
-11.171687 1.85208 2.9998035
7.0563302 1.821633 2.9984958
7.4677291 1.8462428 2.9282258
7.7300582 1.7579036 2.9401619
8.0648136 1.7500234 2.9413779
12.339963 1.6588502 3.0545256
12.557357 1.8102582 2.9903619
12.900348 1.9198228 2.8640764
-16.628727 2.0090666 2.8151379
-16.115156 2.2342741 2.8463848
-15.941387 2.3552768 2.8159039
-14.564631 2.2058232 2.979938
-13.411713 2.1992021 3.0360444
-13.111033 2.2118542 3.082659
-12.550371 2.2136898 2.9116364
-12.075689 2.2140603 3.0886827
-11.115308 2.2020135 3.0018125
6.7310791 2.2602522 2.9698713
6.8998346 2.1563365 2.9168396
7.3771911 2.2134631 2.9477901
7.933403 2.0503454 2.9961984
12.765826 2.0371203 3.0529413
12.996712 2.1910486 2.9979124
13.234275 2.3979993 3.0910254
-17.686909 2.5678802 3.1369596
-17.381752 2.6631501 3.1218257
-17.120192 2.7485187 3.1267045
-14.905441 2.6376123 2.9167976
-14.554296 2.5467398 2.9840927
-14.383466 2.6854572 3.0128644
-13.39657 2.5550957 3.0211806
-13.095097 2.6301732 3.0813379
-12.496456 2.6097136 2.9167161
-12.020867 2.5521121 3.0846405
-11.905799 2.7346334 3.0508378
-11.045838 2.5903091 3.0056543
6.381392 2.7690322 2.9481533
6.5827932 2.6323872 2.9367995
7.0345802 2.5929141 2.9274223
7.4423108 2.5113096 2.8278329
13.379372 2.5566323 2.9951861
13.652072 2.7489665 2.9534359
-16.957468 2.898473 3.0385458
-16.610512 3.0488787 3.0371945
-16.394657 3.1844387 3.00088
-15.240262 2.8731759 2.809437
-15.004351 3.0223117 2.9222775
-14.495911 2.9964342 2.9881802
-14.32077 2.9843276 2.958885
-13.36719 3.0192711 2.9976656
-13.013413 3.0136399 3.0783517
-12.428002 2.9428432 2.9180019
-12.34748 3.016113 2.9039876
-11.937442 3.0058136 3.0799506
-10.959051 2.9835868 3.0156314
6.2287068 2.9998386 2.9412889
6.6947556 3.0432894 3.0284569
6.9842763 2.9656718 2.90189
10.153828 2.9278252 2.9187975
10.463263 3.1746509 2.8029578
13.751206 3.0071394 3.0341554
-16.163441 3.280874 2.9287715
-15.931844 3.3366272 2.8097141
-14.933543 3.3671222 2.8403468
-14.590551 3.3655422 2.9086852
-14.282784 3.4702144 2.9623706
-13.251707 3.384877 2.9942191
-12.898585 3.4020634 3.0847125
-12.796265 3.5760665 3.0983624
-12.324467 3.3909936 2.9205866
-11.811639 3.4019468 3.0792596
-10.86979 3.3990099 3.0298247
5.9135227 3.4737859 2.9439843
6.2545543 3.4365308 2.9929104
6.5547013 3.3353231 3.0065181
6.9742446 3.233521 2.8621781
10.458786 3.2640407 2.8966448
13.467064 3.412612 2.9949024
13.618324 3.2146449 3.0101519
15.130415 3.4541256 2.9766369
15.26327 3.5602942 3.0110047
-14.831359 3.6785243 2.8403928
-14.706553 3.844486 3.0049608
-14.138109 3.7214315 2.9755688
-13.922709 3.9059775 2.9078591
-13.084207 3.766098 3.0217917
-12.750021 3.816206 3.1175373
-12.217226 3.8004405 2.9234905
-11.679386 3.7945447 3.0805736
-10.803004 3.6257076 3.0308399
-10.756875 3.7782071 3.0321536
5.5888882 3.9914231 2.902298
5.7815089 3.8322101 2.9254906
6.1236873 3.7832778 2.9522789
6.4965682 3.7718735 2.9177458
13.128354 3.8923154 3.0186946
13.258145 3.6989686 2.986654
14.940969 3.9077773 2.9664626
-14.801262 4.0279956 3.0890188
-14.637767 4.1403112 2.9668531
-14.210942 4.2261753 3.0033455
-13.755648 4.1084924 2.9263139
-13.470172 4.2836599 2.8828125
-13.046585 4.2052383 3.0095069
-12.62638 4.2013135 3.1269965
-12.106152 4.2093244 2.9286849
-11.613127 4.0014257 3.0836689
-11.537657 4.2060461 3.0855632
5.5568776 4.2011509 2.9026182
5.7898717 4.1911449 2.9151022
6.3422832 4.0482798 2.9107201
12.744164 4.3474574 3.0282552
12.989549 4.1700253 2.9830875
14.73319 4.2464123 2.9468164
14.846303 4.0677743 2.9576797
-14.207974 4.473721 2.825695
-13.751224 4.5026722 2.9342327
-13.339104 4.5487614 2.8579695
-13.017522 4.5936799 2.8895342
-12.49187 4.5937214 3.1361971
-12.140965 4.5807247 3.0039425
-11.965559 4.6806846 2.9359219
-11.377486 4.6101241 3.0921965
-9.5403824 4.7436118 2.8213928
5.4683285 4.5982447 2.892498
5.7142901 4.5975361 2.8966951
12.380676 4.7981052 2.9548743
12.554005 4.5943694 3.0167685
13.011652 4.5266523 2.8559117
14.534534 4.5808358 2.9303658
-13.252229 4.8277459 2.8416002
-13.060459 4.9100857 2.8496211
-12.567189 4.9602413 3.0180516
-12.313926 5.0372729 3.1278145
-11.857325 4.9990015 2.9406042
-11.236298 4.8441296 3.1134291
-9.7720652 5.0679827 2.896836
-9.5919666 4.8131499 2.8420186
5.1722579 5.0642858 2.9095542
5.375927 4.9628 2.9025407
5.6051302 4.8148236 2.8984051
12.228466 5.0094433 2.9755518
12.411234 4.8037119 3.0450439
14.377433 4.89639 2.9223354
14.521835 4.9965873 2.9598694
-12.129351 5.3148932 3.0539489
-11.866637 5.4862652 2.9922578
-10.062755 5.4997196 2.9137118
-9.8962011 5.3596435 2.9491818
5.2265234 5.2316251 2.9224319
11.902649 5.4615126 3.0080001
12.045293 5.2482629 2.9664099
-11.678754 5.6598859 2.9629657
-11.538598 5.7629733 2.950659
-10.150274 5.777348 3.0369034
-9.9617205 5.9217629 3.0711846
7.7706904 5.9463768 2.9645274
11.545891 5.944458 3.0390921
11.716113 5.7681198 3.0082171
-10.607306 6.2948742 2.9225192
-10.347432 6.0838418 3.0711334
-9.8208141 6.1909733 3.0769761
4.2558837 6.0600066 2.832505
4.4332333 6.3829708 2.8798721
7.741076 6.0206971 2.9792032
11.168118 6.3704548 2.9040892
11.390339 6.2099404 3.0133398
11.62196 6.0486598 2.9142978
-10.522423 6.4876118 2.8958905
-10.260186 6.6733136 2.9283059
-9.6602869 6.5214829 3.0894122
-9.5581989 6.7235203 3.0976667
4.3703594 6.4819927 2.8833208
4.4082918 6.4276366 2.8822761
4.8099051 6.5833321 2.8018496
11.026254 6.5998106 3.0034969
11.32256 6.5949273 2.9281747
13.857697 6.6764669 2.9757969
-10.070068 6.8446574 3.0220177
-9.8039455 7.005178 2.9274037
-9.4665537 7.0588923 3.003871
5.4746518 6.9864769 2.835989
10.672991 7.0435095 3.0162814
10.918762 6.9159217 2.934566
11.201342 6.8282051 2.9177687
13.519733 7.0976524 2.952054
13.677742 6.8972406 2.9623857
-9.3614378 7.3186126 2.9642973
-9.1017475 7.5132422 2.9815524
3.545326 7.5502763 2.9148543
3.7194915 7.3876929 2.914542
5.7684216 7.2665882 2.8037858
6.1431408 7.5218081 2.8735259
10.29844 7.4817128 3.0124147
10.5753 7.353457 2.9471674
13.154561 7.546658 2.92924
13.315783 7.3558044 2.9396834
-8.9068508 7.6752429 2.9354684
-8.6657944 7.8653097 2.9535532
3.1767509 7.9705048 2.9285614
3.3907173 7.7802954 2.9231479
3.6171248 7.6211147 2.9154818
4.8990536 7.786459 2.9850559
6.3504028 7.7928596 2.8742368
6.7529573 7.9769859 2.9054246
9.9295759 7.9165254 3.005512
10.122504 7.7692094 2.9683118
10.500585 7.7744894 2.9056952
12.951344 7.8016195 2.9188235
-8.4696302 8.0497284 3.0406725
-8.1927633 8.2358084 3.0431221
-7.9511542 8.3896542 2.9985037
2.7445652 8.3680563 2.9330013
2.972342 8.188158 2.9356513
6.6995921 8.0164671 2.9031966
7.0076008 8.1948357 2.8938932
9.5644693 8.3468781 3.0101597
9.7651596 8.1686163 2.9611647
12.640856 8.189703 2.9048531
-8.0092907 8.5607996 2.8006072
-7.8120604 8.5846739 2.9802728
-7.5136847 8.7432499 3.0229585
2.3197527 8.7429037 2.9171455
2.6096356 8.5938129 2.940752
2.8012564 8.5152664 2.9866018
6.1972761 8.5774546 2.9367568
7.4837689 8.5856819 2.8200169
7.660614 8.7248631 2.8915558
9.4336395 8.5978775 2.958807
9.6282473 8.4116249 2.9028106
12.271083 8.6491241 2.8914604
12.439158 8.4394112 2.8968723
-7.707437 8.8838711 2.8256433
-7.3745675 8.9731283 2.9434433
-7.0273724 9.0981236 2.9877491
1.8767149 9.0820532 2.9364944
2.243778 9.0411863 2.9583287
2.4461384 8.8846827 2.94049
6.5623245 8.8660841 2.8979676
8.2246103 9.1600151 2.8615632
9.1067705 9.0619984 2.9847326
9.2660027 8.8906479 2.9324427
12.131739 8.8216305 2.8873026
-7.2350006 9.2334604 2.8479459
-6.8871727 9.2397699 3.0014052
-6.6002035 9.4195118 2.9706678
-6.2670259 9.5624456 2.8627396
-5.9076128 9.5262623 2.8552597
1.5397058 9.5255108 3.0064082
1.8317358 9.4268875 2.9997687
2.0866141 9.3322706 3.0149097
7.150703 9.3217115 2.9197865
8.2034693 9.2012224 2.8643045
8.7577477 9.457551 3.016156
8.9291964 9.4320383 3.0080848
-6.1951613 9.6812992 2.9135499
-5.8171306 9.8407898 2.8468668
1.168981 9.9654112 3.0061629
1.3660159 9.7593136 3.0005391
1.7955062 9.8137112 3.0621908
2.1225276 9.808609 2.959404
5.6506853 9.6246452 2.9541669
8.3396072 9.9136963 2.8948908
8.6401052 9.7471581 3.0097258
8.8453445 9.6400299 2.9634702
-5.6559277 10.081126 2.9507062
-5.4445314 10.253907 2.954536
1.0143504 10.195621 3.0803745
1.5017041 10.209263 3.0639503
1.6393508 10.054323 3.104418
4.5293484 10.118337 3.0049548
5.0286217 10.362391 2.9601436
5.2038603 10.277102 2.8936498
8.2219868 10.116043 2.9482954
9.7153835 10.340704 2.8483477
-5.2783294 10.466932 2.9758489
-5.0065923 10.61943 2.9524186
-4.7641263 10.774209 2.9758949
-4.0971923 10.669817 2.817147
-3.9509511 10.763657 2.8476784
0.68777281 10.627607 3.1292124
0.9729498 10.589337 3.0771754
1.2963667 10.517226 3.0492013
1.6627535 10.483294 3.0001688
4.7652445 10.441547 3.127929
4.9227185 10.412697 2.8956463
7.8759961 10.540669 3.0407674
8.0252676 10.425904 3.0418334
-4.9120679 10.895911 2.9352479
-4.5841866 10.983484 2.9640527
-4.3109751 11.114239 3.0245802
-3.8237381 10.981644 2.9122384
-3.4046879 11.115851 2.9844041
0.29883337 11.074957 3.0362201
0.57122684 10.998306 2.9856436
0.93420678 10.959733 3.0033395
10.381601 10.894938 2.8702836
10.51806 10.929752 2.8974152
-4.4863629 11.275171 2.9716816
-4.175281 11.373109 2.9775352
-3.8494864 11.469773 3.0307152
-3.3596482 11.360348 2.9855211
-3.0040236 11.391171 3.075247
-2.7306433 11.551552 3.1266351
-0.10389192 11.520173 3.0870209
0.16687725 11.409321 2.9776061
0.50998265 11.356138 2.9425342
-4.0590615 11.65307 2.9828706
-3.7714612 11.755339 2.9635048
-3.4366579 11.841005 3.0202327
-3.0839834 11.870189 3.0402353
-2.5808125 11.689456 3.1497371
-2.3275087 11.899002 3.1603005
-0.82450557 11.970296 3.1436744
-0.54134816 11.842714 3.1293588
-0.20276769 11.80518 3.0564783
0.076213978 11.717721 3.0354419
6.7564173 11.970201 3.1200719
6.8028693 11.91255 3.1162479
-3.6451011 12.068949 3.0319333
-3.3653336 12.190525 2.9436531
-3.0114431 12.213723 2.9476414
-2.7100019 12.329227 2.9701576
-2.1419895 12.052582 3.1819143
-0.94399774 12.098127 3.1774251
-0.53678614 12.222728 3.1026103
-0.2858921 12.158706 3.0731583
0.00079464912 12.156679 3.0715106
6.5752792 12.211781 3.1390812
-3.2409742 12.427217 2.9439664
-2.9720075 12.547657 2.9996991
-2.5826881 12.56367 3.0104232
-2.2411616 12.702482 2.9974718
-1.9744381 12.771141 2.9245241
-1.335439 12.675682 2.8069916
-0.9063167 12.665328 3.0864522
-0.65696782 12.504102 3.0952375
0.021977425 12.789805 2.8331482
6.2612586 12.620894 3.1724892
6.4061971 12.440917 3.1583142
-2.5474303 12.883815 2.9596622
-2.1446872 12.860566 2.9698768
-1.8076235 13.012933 2.9939673
-1.3906384 13.134071 3.0318742
-1.0388675 13.041099 2.9737453
-0.62264746 12.937076 2.8380537
-0.20463201 13.030242 2.8805597
3.5083485 13.053798 2.9251995
3.6598155 13.064096 2.9415984
5.9364462 13.186182 3.1332302
6.134491 12.99542 3.1514146
-1.6307532 13.219935 3.0402999
-1.3882692 13.327851 3.0031934
-1.0377805 13.425341 3.0244501
-0.038028359 13.249794 2.9552796
0.21848257 13.422 3.0201697
0.4553721 13.5826 3.0808868
2.3761518 13.483363 3.0320153
2.5553744 13.393236 2.9291656
5.5846348 13.545588 3.1671848
5.7487607 13.363819 3.1480203
-0.97778261 13.728462 3.0515187
-0.64595133 13.830147 3.1011276
-0.344625 13.998719 3.1553013
0.6368233 13.695465 3.125422
0.85295939 13.828573 3.1784678
5.4786177 13.685465 3.1848831
-0.52367342 14.135227 2.9689012
-0.26148111 14.24444 3.1069593
-0.18276812 14.526532 2.9831619
0.18853529 14.666501 2.9468868
0.45624506 14.74828 2.8634284
0.25753015 14.939909 2.978817
0.58027869 15.00703 2.9797781
0.93172085 15.118398 2.9731469
0.60745019 15.247517 3.0483084
0.97749013 15.232219 2.9593575
-15.435013 -5.7340674 3.2247915
6.681469 -2.9356174 3.2289956
6.8462415 -2.8169665 3.2702405
7.0323124 -2.6820869 3.3177953
7.2995954 -2.4874823 3.3874474
7.8806791 -2.5866458 3.2368748
8.0692568 -2.4427507 3.2658603
7.4536233 -2.2343686 3.3187163
7.6582661 -2.1003885 3.441807
8.2782907 -2.2439744 3.330044
-17.6278 -1.7394408 3.2464306
7.796123 -1.8152539 3.4061198
8.2250748 -1.7429169 3.3338611
9.1938782 -1.6162465 3.2089407
-17.626041 -1.3985895 3.2492852
7.83143 -1.247541 3.4582448
8.144598 -1.4246603 3.402112
8.5095224 -1.32847 3.3474152
9.1081076 -1.3243886 3.274302
9.2372561 -1.5336155 3.2213695
9.710125 -1.2241681 3.2096691
-17.61351 -1.1625625 3.2496738
-17.593006 -0.95378 3.2486236
7.8740253 -1.0524292 3.4656568
8.0703459 -1.0405995 3.4290771
8.6541147 -1.0753464 3.3324807
8.9322062 -0.94589102 3.3378112
9.2058468 -0.80190146 3.3116384
9.8960552 -1.0649993 3.2398906
10.146095 -0.90314496 3.3147955
-17.566822 -0.59283018 3.2509058
7.9503469 -0.43607664 3.4758501
8.0879726 -0.59991693 3.4350631
8.6426773 -0.57590187 3.2564554
9.0108223 -0.64906216 3.3970239
9.3256178 -0.56008959 3.3503561
10.301073 -0.7434088 3.3358874
