# .PCD v0.7 - Point Cloud Data file format
VERSION 0.7
FIELDS x y z
SIZE 4 4 4
TYPE F F F
COUNT 1 1 1
WIDTH 1522
HEIGHT 1
VIEWPOINT 0 0 0 1 0 0 0
POINTS 1522
DATA ascii
2.6660299 -16.235651 0.88425183
2.9915669 -16.284216 0.92206168
3.3541427 -16.203344 1.1152724
3.9002497 -16.083025 0.96912825
4.208642 -16.119616 0.96824092
4.6450305 -16.077259 0.96197075
5.0090761 -16.069729 0.99141663
5.3949594 -16.096636 0.99744022
5.7895646 -16.143293 1.0175776
6.1351848 -16.188643 0.99898905
6.5858388 -16.240015 1.0431069
7.0010304 -16.230227 1.0533148
7.4987435 -16.268917 1.0042781
7.7628531 -16.227816 1.0495503
8.0799971 -16.201468 1.0975218
8.7933941 -16.338902 0.99953169
8.8961563 -16.215416 1.0653183
-7.3151922 -15.663814 0.80236816
-6.7548237 -15.631708 0.89748752
-1.7679752 -15.672094 1.1959513
-1.4226142 -15.672919 1.1867625
-0.97613925 -15.712825 1.1271292
-0.60687125 -15.727571 1.0924599
-0.23156646 -15.758643 1.0912505
0.13543992 -15.742259 1.0983111
0.59794807 -15.845647 1.0263388
1.0402926 -15.794686 1.0760211
1.3963752 -15.81713 1.0059242
1.794484 -15.803974 0.99770039
2.2551308 -15.70349 0.9338904
2.5671518 -15.712955 0.93944842
3.0391426 -15.64592 1.0086049
3.4498603 -15.792894 1.0337151
3.810153 -15.837877 1.0257167
4.19169 -15.857431 1.0217894
4.5835776 -15.887179 1.0288022
4.9817109 -15.888655 1.033603
5.3517747 -15.864184 1.0145403
5.7862382 -15.816115 0.92289579
6.1938748 -15.816024 0.96495312
6.5607295 -15.779297 1.0046018
6.9184971 -15.974232 0.91673017
7.429966 -15.690907 0.97592968
7.6231771 -15.921229 1.1715167
9.0468006 -15.84357 1.0176522
-14.762231 -15.322136 0.85996109
-9.2054567 -15.368793 1.0085907
-8.9947138 -15.37472 0.9962759
-8.6079168 -15.374847 0.97315317
-8.1912565 -15.362569 0.94778317
-7.7971439 -15.357659 0.92509598
-7.3917379 -15.355054 0.90275967
-6.9960122 -15.345264 0.88101739
-6.6724343 -15.496654 0.87991953
-6.3869553 -15.525648 0.8690635
-2.1583016 -15.24884 0.8178525
-1.7907988 -15.26553 0.81368518
-1.3645279 -15.248453 0.92652291
-1.0142014 -15.291161 0.95575696
-0.57986259 -15.328508 1.0152377
-0.16899465 -15.27984 1.0446711
0.23570706 -15.259532 1.0009241
0.62969393 -15.260049 1.0049368
1.0066575 -15.257571 1.001997
1.3655744 -15.270494 0.97919023
1.7774626 -15.303861 0.98326075
2.2507048 -15.331213 1.0002506
2.6096559 -15.376831 0.99305427
2.9971387 -15.420369 1.0014328
3.3305695 -15.398582 1.0229954
3.6849432 -15.373684 1.0728536
4.2367921 -15.524741 1.0785555
4.483789 -15.516499 1.1829499
5.7936683 -15.428053 0.90623271
6.2052608 -15.434016 0.95606178
6.5814028 -15.423913 0.99140662
6.9969435 -15.361043 1.0087007
7.3971891 -15.366396 1.0514715
7.7147293 -15.390465 1.1353126
9.0757666 -15.540898 0.98524261
-14.898567 -14.943884 1.1452669
-14.637674 -14.96774 0.84797221
-10.177318 -14.945282 1.0858011
-9.8328342 -14.950389 1.063535
-9.4099979 -14.974876 1.0262706
-9.0325155 -14.991258 0.99799043
-8.6256924 -14.996525 0.96720117
-8.2039623 -15.000792 0.93595684
-7.8002295 -15.003102 0.90665132
-7.3609705 -14.971022 0.96068323
-7.0036712 -14.954164 0.98043352
-6.5831871 -14.885034 1.1082813
-6.1902442 -14.892569 1.020062
-5.8147454 -14.878612 0.97104949
-5.3667002 -14.875188 1.005738
-4.9800582 -14.854496 0.99065256
-4.580554 -14.848799 0.96739256
-4.216455 -14.869514 0.93324691
-3.7642426 -14.839052 0.99487263
-3.3777575 -14.840228 0.98216486
-2.9723179 -14.848481 0.98316723
-2.5844023 -14.850908 0.97942328
-2.193676 -14.878601 0.97685164
-1.8001527 -14.927889 0.98320037
-1.4021319 -14.980885 0.99434608
-0.99922454 -15.021222 0.99335182
-0.60247296 -15.059168 0.98461753
-0.19838877 -15.085192 0.96479678
0.2009661 -15.114785 0.96444297
0.58177567 -15.133786 0.97379315
0.96822166 -15.140751 0.96986663
1.4607022 -15.072927 0.98471636
1.8011302 -15.041761 0.97106147
2.1177876 -15.063105 0.96985763
2.5324385 -15.053832 0.96980262
2.9957192 -15.149364 0.98055726
3.3793817 -15.055822 0.92824143
3.6474085 -14.829456 0.92035753
4.5174074 -14.87253 0.83651733
7.3574157 -14.949829 1.1881956
7.6656055 -15.00038 1.0460615
-14.82914 -14.712437 0.90788013
-14.624576 -14.760333 0.80884904
-11.708924 -14.413341 1.0190208
-11.388151 -14.434486 0.98657978
-10.994138 -14.502416 0.94935185
-10.678549 -14.51001 0.91750258
-9.7007751 -14.430202 0.81551558
-9.3790178 -14.413317 1.0701451
-9.0013571 -14.430926 1.0824877
-8.6005564 -14.450446 1.0540216
-8.1886005 -14.518548 1.07111
-7.7453542 -14.51984 1.0312425
-7.3679962 -14.47858 0.95620894
-7.0011234 -14.500161 0.96957916
-6.5944376 -14.535799 0.98630363
-6.1970243 -14.56986 0.9809075
-5.7939487 -14.598154 0.98486722
-5.3938513 -14.646334 0.98036617
-5.0034814 -14.674146 0.99615276
-4.6135993 -14.69417 0.99224907
-4.1740894 -14.674359 0.98557115
-3.8054371 -14.67884 0.98414326
-3.4118609 -14.713537 0.98763591
-3.013303 -14.746212 0.99490768
-2.6338027 -14.745091 1.0039929
-2.2579954 -14.706007 1.037511
-1.8118922 -14.65148 1.0304286
-1.4099401 -14.679742 1.0522318
-1.02494 -14.707618 1.0654578
-0.68018723 -14.782071 1.0324615
1.330048 -14.665604 0.94162673
1.7537402 -14.658423 0.84060961
2.1534688 -14.653919 0.95048642
2.5175238 -14.422072 0.85329443
3.4737968 -14.686914 0.97134954
3.6845565 -14.708749 0.99512005
4.5321112 -14.776098 0.82650936
5.7320194 -14.510308 1.1249248
6.1458521 -14.446226 1.0474831
6.5943189 -14.573796 0.99471557
7.1771731 -14.59167 1.0824116
7.2184534 -14.586906 1.1157607
7.6460471 -14.762478 0.93304896
-13.304388 -14.209887 1.1809733
-12.963875 -14.165779 1.0486964
-12.563715 -14.187114 1.0166774
-12.159354 -14.153197 0.94119895
-11.768606 -14.059665 0.98099804
-11.381115 -14.063997 1.0021104
-10.986969 -14.080687 1.008826
-10.582713 -14.097921 0.98699683
-10.202776 -14.081006 0.97888339
-9.7948561 -14.087897 1.0020478
-9.4028578 -14.131631 0.98146552
-8.9916821 -14.166165 0.97970492
-8.5980749 -14.203906 0.97947907
-8.2061338 -14.239394 0.98991203
-7.8032308 -14.273062 0.97117335
-7.4391046 -14.316607 1.004377
-7.0181918 -14.308276 1.008779
-6.5911613 -14.24116 1.0259684
-6.1893964 -14.254527 1.0585672
-5.81675 -14.319508 1.0164498
-5.3848095 -14.365092 1.0818335
-5.0512691 -14.355498 1.1093905
-4.6014652 -14.333462 0.83110988
-4.3530455 -14.388769 0.8259117
-3.6676686 -14.215167 1.085211
-3.3980978 -14.220309 1.1563601
-2.9174712 -14.245186 0.81529027
-2.6212087 -14.249947 0.8732087
-2.3869691 -14.25273 0.91900134
-1.8154303 -14.259489 1.03111
-1.402902 -14.268073 1.112615
-1.0531274 -14.30267 1.1707742
0.68923044 -14.356897 0.82537299
1.0199916 -14.382268 0.85539281
1.4134169 -14.371808 0.9188056
1.8021303 -14.284941 0.94464004
2.1227379 -14.160209 0.97217965
3.9412372 -14.064227 0.90628028
4.2427888 -14.111906 0.9683612
4.562005 -14.126038 1.0369517
5.0004053 -14.227111 1.0238974
5.3912687 -14.255671 0.96075076
5.7488775 -14.268961 0.95291793
6.11935 -14.197401 0.95290661
6.6192389 -14.221015 1.0078093
7.2288265 -14.278057 1.0643249
-14.42137 -13.601616 0.92178386
-14.159333 -13.675622 0.98311394
-13.753633 -13.673726 0.99278426
-13.409027 -13.721576 0.99892688
-12.995902 -13.746221 0.98042274
-12.598659 -13.787222 0.98099124
-12.201632 -13.827829 0.99487931
-11.803329 -13.871032 0.99682754
-11.405925 -13.889181 1.0028038
-11.007101 -13.928779 0.99514621
-10.630301 -13.962404 0.98840886
-10.197664 -13.914457 0.97680247
-9.8182154 -13.837601 0.96796483
-9.4073019 -13.800297 0.8969301
-8.9821081 -13.785835 0.95643157
-8.5982523 -13.81326 1.0257853
-8.2233896 -13.868053 1.0301396
-7.7845807 -13.848998 1.0887086
-7.4202971 -13.880553 1.0559655
-7.0335784 -13.915259 0.99056393
-6.703258 -13.934538 0.94908249
-3.4275045 -13.888007 0.88833255
5.1620312 -13.92183 0.81852669
5.4199772 -13.947734 0.85499662
5.8853416 -13.772708 1.1869208
6.1601982 -13.801634 0.9497211
6.5955563 -13.804222 1.0364141
-14.558371 -13.4217 0.99285293
-14.207625 -13.497843 0.9995783
-13.810091 -13.534692 0.98388475
-13.41483 -13.543487 0.95762599
-13.026717 -13.521293 0.96709281
-12.625996 -13.400786 0.9191367
-12.159727 -13.455718 0.98361897
-11.818843 -13.44381 1.1098506
-11.384 -13.44563 1.0428039
-11.011441 -13.447904 1.0517311
-10.586699 -13.51276 1.0359764
-10.184614 -13.52142 0.92560285
-9.7950382 -13.525955 0.8210603
-9.5074396 -13.444008 0.92894596
-7.8674278 -13.589823 1.0418813
3.8443642 -13.571306 1.1207268
5.3178587 -13.201945 1.0039617
5.7984734 -13.287377 0.8573792
6.1671357 -13.439176 0.94345337
6.5915589 -13.438339 1.0056924
9.3216019 -13.450167 0.96543938
-14.583861 -13.004002 0.97704339
-14.230312 -13.028301 0.96048576
-13.825573 -13.055269 0.91967404
-13.42404 -13.113692 0.88391721
-13.044408 -13.132913 0.84440666
-9.5242376 -13.188242 1.1871934
4.2829952 -12.943422 0.92079026
4.6112146 -12.984158 0.97085631
4.9758024 -13.013957 0.99341935
5.4931998 -12.902443 0.99378937
5.6909285 -12.980607 0.96824771
6.1357903 -13.172523 1.1355692
6.5939054 -13.098862 1.0063622
-14.989675 -12.528306 0.95455283
-14.548079 -12.602816 0.98656327
-14.236054 -12.579678 0.87918186
-13.834297 -12.621165 0.92593127
-12.435892 -12.425935 0.80857462
5.5348258 -12.602965 1.0082214
5.6892686 -12.567142 0.98234552
6.0915146 -12.522471 1.1461781
-14.961991 -12.206565 0.93241292
-14.492043 -12.197803 0.99438828
-14.281378 -12.201066 0.92177862
-13.74722 -12.206494 1.1312461
-12.981414 -12.28703 0.85760355
-12.635216 -12.375307 0.82636178
5.5549121 -12.223154 1.009225
5.6884031 -12.168805 0.98879379
6.0808105 -12.159164 1.0782312
-14.884563 -11.798154 0.9014982
-14.466395 -11.814993 0.97114033
-14.360118 -11.779279 0.99708247
-13.728272 -11.83333 1.0856844
5.5668263 -11.873217 1.0030636
5.8352051 -11.800186 0.99425906
6.0845022 -11.717031 0.95902646
-14.817505 -11.451773 0.87606114
-14.467396 -11.436564 0.92938322
-14.33812 -11.372623 0.99722123
-13.701753 -11.421849 1.0355599
5.4909725 -11.378358 1.1307224
5.9415298 -11.458251 1.0000352
6.0800376 -11.377729 0.967251
6.5123215 -11.351664 1.1011099
6.8178363 -11.2176 1.1232817
7.4440894 -11.252491 0.94149804
7.8249431 -11.346908 1.0088871
-15.050611 -10.992464 0.98061705
-14.475628 -11.055792 0.99198908
-14.318728 -10.997003 0.96786827
-13.721619 -10.997561 1.0296284
5.4184375 -10.971784 0.97314078
5.7931323 -11.003353 1.1354728
6.129014 -11.017985 0.96913373
6.6348681 -11.017303 1.0915018
6.8868761 -11.019499 1.0716207
7.8290615 -10.944113 1.0692753
8.326849 -10.913322 0.81547046
8.5607309 -10.959899 0.85228461
8.9587116 -10.879123 0.9310897
9.4150333 -10.928488 0.97364813
-14.959679 -10.618855 0.95503259
-14.439519 -10.585644 1.1386501
-14.279112 -10.602962 0.99973869
-13.748047 -10.609116 1.0366218
5.497376 -10.702632 0.97711647
5.7732253 -10.484033 1.0102987
6.1613383 -10.684106 0.98948771
6.6426425 -10.623651 1.0623572
6.8454413 -10.584785 1.0472566
7.4856133 -10.563295 0.8449319
7.7676854 -10.592887 0.91009188
8.1908407 -10.569789 0.92706352
8.6800852 -10.472333 0.96259075
9.0285807 -10.447289 0.95993626
9.3884954 -10.464471 0.97316152
9.6351461 -10.446917 0.96080649
-14.856358 -10.205665 0.92775792
-14.41166 -10.297296 1.1313725
-14.238532 -10.18829 1.0203919
-13.847605 -10.210537 1.0677745
5.8111758 -10.19374 1.0029444
6.2013621 -10.075147 0.99348885
6.6334553 -10.044184 0.9831655
7.0191131 -10.072673 0.97750062
7.4055457 -10.106715 0.99355763
7.795126 -10.152786 1.0104877
8.1918058 -10.197806 1.0076329
8.5962467 -10.247126 0.99887228
8.9960966 -10.260703 1.0072854
9.4451952 -10.243276 0.98937815
9.6882477 -10.175875 1.0041173
10.12979 -10.074123 1.0455838
-14.735297 -9.7940302 0.92171085
-14.2085 -9.7997065 1.0091573
-13.853277 -9.7967911 1.0909561
5.8819323 -9.9149818 0.96719259
6.1835604 -9.8997097 0.96441436
6.5738263 -9.9258394 0.94846725
6.967833 -9.9142733 0.99555975
7.3849912 -9.8838196 1.0173527
7.7705574 -9.8547535 1.0106521
8.2064152 -9.8196278 0.99726409
8.6343203 -9.9021893 0.95367742
8.9940939 -9.8933678 0.97885603
9.4992447 -9.8565083 0.93699789
9.7183323 -9.7949772 0.99576449
10.159934 -9.8490305 0.9948324
10.409971 -9.7764025 1.0755453
-14.642257 -9.410265 0.89915818
-14.170672 -9.3955364 1.0101757
-13.816105 -9.3933601 1.0347188
6.0379767 -9.397728 1.0022568
6.4154491 -9.496172 0.83939272
9.5024824 -9.4190817 0.88335592
9.7563639 -9.3997993 0.99268216
10.192345 -9.4118395 0.94045532
10.417274 -9.3640814 1.0370986
-14.543911 -9.0115051 0.87970847
-14.126629 -8.9932823 0.99304181
-13.793604 -8.997838 0.99285221
-13.509215 -8.8820152 0.83609599
5.6501961 -9.152565 1.1467159
6.0500402 -9.1904564 0.99831492
9.550889 -9.038003 0.88958031
9.7981262 -8.9953833 0.98420238
10.185342 -8.9895277 0.90319258
10.424166 -8.9784012 1.0015111
-14.463682 -8.6995182 0.87251109
-14.088604 -8.6015415 0.99598128
-13.859189 -8.5720806 0.92553848
-13.497388 -8.7053871 0.8158713
9.8347654 -8.6026421 0.99361122
10.207925 -8.596755 0.92501616
10.431935 -8.5832968 0.96552652
-14.059254 -8.2124586 1.0215611
-13.89638 -8.1594076 0.93383259
9.8824062 -8.2025137 0.98429936
10.188824 -8.1883011 1.0119774
10.43929 -8.1799135 0.9292137
-14.065242 -7.8371701 1.0331719
-13.938388 -7.7747827 0.96529758
9.9178658 -7.8145275 0.97669375
10.161464 -7.7571359 1.0057483
10.449671 -7.8096261 0.89664578
-14.085251 -7.4348884 1.0064399
-13.922773 -7.3956933 1.0086364
-1.2668555 -7.271245 0.916879
3.8609416 -7.2462502 1.1668707
9.5761366 -7.4860973 1.0302027
9.8256464 -7.3930511 0.97175497
10.139561 -7.4432731 0.99414408
-14.136263 -7.0743856 0.89930248
-13.885887 -7.0002728 1.0147654
-7.8603015 -6.8138108 0.84105933
-1.8065103 -6.9256592 1.0915551
-1.3176881 -7.0258474 0.94480246
3.8874576 -6.9037795 0.98177779
4.1191888 -6.9732499 0.99736339
4.4531775 -6.8222599 1.0958041
9.8803635 -7.0394197 0.98228645
10.065351 -6.9147663 0.9609015
-14.020216 -6.5149231 0.91759449
-13.831951 -6.6015792 1.0085582
-13.379611 -6.5140748 1.0543509
-7.84517 -6.5886593 0.83240926
-1.7995316 -6.6113091 1.0351551
-1.356077 -6.6930871 0.93324554
3.9002526 -6.6065397 0.96670842
4.106698 -6.5249481 0.98514861
4.7106171 -6.441431 0.81088459
4.914855 -6.4409728 0.80938089
9.9242468 -6.6647782 0.96624529
10.078491 -6.5984945 0.96700072
-13.78026 -6.1997108 0.99373668
-13.454906 -6.1881437 1.0652449
-7.7345796 -6.1213207 0.99362928
-7.5223427 -6.0784125 1.1195848
-2.0881245 -6.1847916 0.99323422
-1.8195378 -6.2386918 1.0057203
-1.5646887 -6.1871057 0.90163803
3.9188743 -6.3146014 0.96745157
4.1637936 -6.3129115 0.97328383
4.4365683 -6.3585691 0.95900279
9.9637461 -6.2722411 1.0449542
10.118772 -6.1991835 0.97525042
-13.749116 -5.8004699 0.98263842
-13.440457 -5.8060312 1.0596807
-8.0895262 -5.6743827 0.90199381
-7.7863016 -5.6602731 0.97807527
-7.5428305 -5.7509546 1.0713187
-2.080883 -5.8059855 1.0030165
-1.8012475 -5.7295704 1.0213652
-1.55137 -5.7400427 0.98937553
3.68537 -5.750474 0.80698144
4.1549535 -5.8456244 1.1950282
9.9633417 -5.7501493 1.0333821
10.168356 -5.7971916 0.96162349
-14.114112 -5.3584833 1.1005105
-13.704597 -5.4023123 1.0030749
-13.482714 -5.386651 1.0261568
-13.02048 -5.3722949 1.0179279
-8.4441156 -5.5621681 0.84218663
-8.1569195 -5.5386486 0.94242209
-7.6789117 -5.4156513 0.98814678
-7.5374632 -5.3558688 0.98946416
-2.0866179 -5.5584865 1.0094917
-1.878873 -5.5810709 0.96860528
9.9649649 -5.4252982 0.87845546
10.205722 -5.4026947 0.95411658
10.451025 -5.3177824 1.1397609
-14.447063 -4.8439674 1.0882561
-14.273648 -4.9388433 1.033867
-13.675406 -4.9985261 1.0048565
-13.509495 -4.9674063 1.0235101
-8.0224552 -5.0011458 1.0067744
-7.7539401 -5.0442953 0.96614379
-7.5297518 -5.0478592 0.95473701
-6.6439133 -5.029067 1.162106
9.92101 -5.0383925 0.80674344
10.247438 -4.9977355 0.95333785
10.505113 -5.0203609 1.1501411
-20.025227 -4.5430245 0.98381174
-19.788412 -4.5639973 0.96278197
-19.407013 -4.578115 0.92793244
-18.982618 -4.5966125 0.88955647
-18.606688 -4.6236763 0.85643262
-18.236309 -4.6438336 0.8236528
-17.971416 -4.653337 0.80003083
-16.837646 -4.4014907 0.82191986
-16.738968 -4.4105496 0.81129056
-15.395656 -4.5069933 1.0611733
-14.990292 -4.5377154 1.0061824
-14.577188 -4.5471916 0.96718103
-14.19698 -4.5470963 0.97930282
-13.659984 -4.6051612 1.0314776
-13.538991 -4.5831633 0.99103719
-7.6228313 -4.6800914 0.8676517
-7.5345945 -4.6569772 0.96823823
9.8874407 -4.5843587 0.80671567
10.297593 -4.5992441 0.9513756
10.418855 -4.5140557 1.0339582
-19.3011 -4.1277232 0.98380917
-18.996117 -4.241178 1.0636997
-18.580515 -4.2744818 1.0164677
-18.187952 -4.3069611 0.97224313
-17.808609 -4.332015 0.92944974
-17.379812 -4.2979226 0.92317319
-16.961966 -4.0981703 1.0517372
-16.575768 -4.039813 1.0241818
-16.189814 -4.059217 1.0056398
-15.801084 -4.1021214 0.99590427
-15.396323 -4.1588664 0.98374802
-15.004608 -4.2022767 0.98034006
-14.604487 -4.2387757 0.98647332
-14.201967 -4.2861576 0.98985553
-13.800727 -4.3260679 0.99844599
-13.520821 -4.2668619 1.019001
-4.2306056 -4.2256346 0.918042
9.8576851 -4.2981668 0.80898929
10.329309 -4.2040386 0.94935423
10.45059 -4.164485 1.0011756
-22.155186 -3.6051679 0.91039366
-21.786324 -3.8770525 0.85944897
-21.450546 -3.9019191 0.82840091
-20.544481 -3.6183143 0.83217281
-20.117893 -3.6154258 1.0025151
-19.781374 -3.6283576 1.0739548
-19.387995 -3.6578872 1.0281698
-18.992678 -3.7096176 0.99920684
-18.583513 -3.7540128 1.0221212
-18.17861 -3.8015776 0.99606901
-17.791668 -3.8528528 0.98956215
-17.4058 -3.8988581 1.0031631
-17.013523 -3.9383285 0.98933464
-16.642845 -3.9635653 0.95476484
-16.278875 -3.9875693 0.99277616
-15.996203 -3.9997556 1.1646392
-13.648026 -3.9887881 1.1111528
-13.509155 -3.8422728 0.94439334
-4.1159706 -3.8362899 0.85241455
-3.8644059 -3.8529804 0.90139246
9.9957733 -3.780241 0.80582839
10.318018 -3.8178067 0.96554804
10.426232 -3.7807322 0.94889331
10.839853 -3.7635639 1.0039605
-24.171959 -3.4110703 1.1293623
-23.758377 -3.4531312 1.0845233
-23.316336 -3.3663454 1.1142104
-22.981537 -3.3562081 1.0213262
-22.596218 -3.3230374 0.97425872
-22.199623 -3.364464 0.93119001
-21.787594 -3.3896737 0.90329772
-21.400019 -3.4408822 0.90455496
-21.011343 -3.481462 0.93467724
-20.611576 -3.5084231 1.0186088
-20.199221 -3.5478125 1.0517875
-19.774113 -3.5648994 1.0694065
-19.525759 -3.5852723 1.0611845
-13.498383 -3.4600837 0.86468202
-4.0557089 -3.5001698 0.89116144
-3.9590874 -3.4960825 0.8595494
9.9945593 -3.4062045 0.81958193
10.332442 -3.4158096 0.99053043
10.448624 -3.3833151 0.96582633
10.916096 -3.3924162 1.0220681
-23.299911 -3.1464195 1.1618724
-23.031326 -3.176935 1.1291034
-13.60304 -2.8653231 1.1493988
-13.59705 -2.8145113 1.150699
-5.3233566 -2.9832354 0.80012572
-3.8345978 -2.8596168 0.86578166
9.9965601 -3.0154693 0.83610237
10.359409 -3.009038 0.99252307
10.482697 -2.99511 0.98605341
10.996222 -3.0059853 1.0422151
-13.601524 -2.7567587 1.1533476
-13.555856 -2.5427086 1.1555302
-3.709378 -2.6907372 0.91841376
-3.4367046 -2.5452147 0.9162997
-3.1863778 -2.4432642 0.89000541
9.9948187 -2.6208997 0.85401076
10.344997 -2.6281035 1.0324652
10.513313 -2.5982349 0.9965632
11.073256 -2.6055627 1.0634879
-13.45388 -2.1689258 1.1508701
-3.1785202 -2.3988476 0.89585638
9.5832043 -2.0898135 0.85674286
9.9941845 -2.2846031 0.87070835
10.203608 -2.2139094 1.0405052
10.543578 -2.2015345 0.99477142
11.150471 -2.1895902 1.0864221
-13.406949 -1.7977186 1.1556009
9.5533905 -1.800898 0.86773175
10.177011 -1.7949693 0.98638898
10.584015 -1.8051232 0.99889714
10.867861 -1.7256845 0.8873058
11.223414 -1.8280152 1.1081226
-13.370678 -1.4515082 1.1649662
9.5142288 -1.3981204 0.88484758
10.236801 -1.4080987 0.97524416
10.613274 -1.394999 0.99788487
10.868661 -1.3794992 0.87008858
11.35537 -1.2864918 1.1466913
-13.325814 -0.99782038 1.1808376
9.4698296 -1.0023823 0.90257037
10.27174 -0.98919886 1.0283817
10.650382 -1.0012791 0.99348253
10.850807 -0.98454338 0.88008183
11.415304 -0.99930483 1.1657945
-13.299808 -0.71720219 1.1952492
9.4289799 -0.6095944 0.92217845
10.278794 -0.60066056 1.0290337
10.685356 -0.61486173 0.98412269
10.871445 -0.58531868 0.94588971
11.477592 -0.67718971 1.1870375
9.3983631 -0.34167993 0.93601406
10.249435 -0.19717191 0.97540623
10.707328 -0.20108895 0.99082839
10.885808 -0.19000511 0.99600321
9.2999134 0.21833318 0.96303302
9.9529476 0.3939085 1.037847
10.272827 0.18274564 0.96359777
10.723281 0.18277696 1.0041367
10.885096 0.22074443 1.0000695
9.2693357 0.51255363 0.98096198
9.9551563 0.61588579 1.0549877
10.261231 0.634323 0.95678192
10.705575 0.56832379 0.9624542
10.891702 0.61221462 0.99151504
9.95362 0.98859394 1.0838308
10.304402 0.98780608 1.012228
10.706615 0.99359006 0.95659363
10.920922 1.0019308 1.0073893
11.210117 1.0413666 1.0631776
-5.84059 1.4408503 1.1871035
-5.4197488 1.4633445 1.1615082
-5.1520967 1.4796991 1.1456132
-4.4949503 1.5505393 1.1098933
-4.2161622 1.5646198 1.0938269
-3.7936678 1.583506 1.0696472
-3.5007424 1.5971701 1.053238
5.5361123 1.5856498 0.93781328
5.8293829 1.5499976 0.94797122
6.1580548 1.4729323 0.97439283
6.5818963 1.3570178 1.0120943
6.9974928 1.2709714 1.0442985
9.5744305 1.5338678 0.89148897
9.8831491 1.5293882 0.96559358
10.230931 1.4939117 1.0023044
10.638877 1.4912803 1.000011
10.936044 1.4187245 1.0058848
-6.5117731 1.7081789 1.0338224
-6.1984506 1.7058271 1.0293106
-5.7925839 1.7272203 0.99968243
-5.3700676 1.7337023 0.97979033
-4.9964585 1.7338078 0.97257286
-4.615469 1.6917952 1.0131379
-4.2198195 1.7010925 0.99387419
-3.8064151 1.7128513 0.97436297
-3.3804016 1.680342 0.98905534
-3.0286531 1.6725128 0.98721403
-2.5907965 1.6966605 0.97423381
-2.2119884 1.7387335 0.9463135
-1.7941288 1.7573301 0.92407542
-1.3886193 1.7565901 0.91144383
-1.0074432 1.8148649 0.87408984
-0.60113513 1.8193386 0.86189228
-0.23133843 1.8146381 0.85896212
0.1657428 1.7782218 0.87669319
0.63804668 1.8619039 0.80813414
0.8842212 1.8714092 0.80233252
1.5164272 1.8475523 0.83930141
1.8068022 1.8576387 0.83207327
2.1979003 1.8733476 0.82394856
2.6316786 1.8873576 0.81772387
2.9775336 1.8999015 0.81494677
3.3957906 1.9096905 0.81421357
3.8270059 1.9246826 0.81227952
4.1565056 1.9005516 0.81917113
4.6599565 1.8987097 0.85629833
5.0199776 1.9187472 0.88439494
5.3861656 1.8426487 0.92744845
5.7756639 1.8293 0.98788601
6.2400703 1.8882555 1.0555114
6.5739951 1.9459206 1.0482339
6.9660306 1.9280447 1.0647011
7.476522 1.9504987 1.0230492
7.8152351 1.9485891 1.0521039
8.1829872 1.9161063 1.0437356
8.6060238 1.8720405 1.0208071
9.0100574 1.8219422 1.0321796
9.412405 1.7948807 1.0329337
9.8251438 1.7774153 0.98923892
10.190826 1.7169424 0.98881835
10.578707 1.6906325 1.0063603
10.865927 1.6376367 1.0074556
-8.2642717 2.181715 1.1327574
-7.9683962 2.1842239 1.1091996
-6.9771008 2.1847763 1.0300229
-6.4858794 2.0916767 0.9692955
-6.2638316 2.1720574 0.96288466
-5.6610293 2.2567661 0.91621011
-5.3852277 2.2016218 0.90254098
-4.9865346 2.2239466 0.86826503
-4.621315 2.2213466 0.8512764
-4.1941137 2.2030928 0.83330524
-3.8255169 2.0871708 0.83641338
-3.4267642 2.0222969 0.83162212
-2.9971161 2.0301466 0.81662053
-2.6249418 2.0341105 0.80379033
-1.6918027 2.3558555 1.1866996
-1.4210848 2.278338 1.1499615
-0.98913765 2.3238573 1.0673776
-0.62510568 2.3148568 1.0065193
-0.22301741 2.2924531 0.93867141
0.2054348 2.2677648 0.86677331
0.66917455 2.3248427 0.97950351
1.0051894 2.3534987 0.96540034
1.4198678 2.3438661 0.99892336
1.8045704 2.346205 1.0488966
2.2131176 2.3210182 1.0688539
2.624635 2.3230033 1.0140713
3.0106177 2.3341084 0.98517382
3.4144454 2.3353903 0.98579949
3.8019271 2.3123565 0.98167723
4.2008724 2.2794068 0.98790276
4.6047812 2.2449751 0.9986645
4.9992099 2.207536 1.0056766
5.3964233 2.1667836 1.0090595
5.7956915 2.1320159 1.0044698
6.1623898 2.0995982 1.0028076
6.5881214 2.1242187 0.97516453
7.0018358 2.0907371 0.9849214
7.3709197 2.0523839 0.98148525
7.8048353 2.0794187 1.0046546
8.1818094 2.1061041 1.0314269
8.5908041 2.1073554 1.1559571
9.0416431 2.091398 1.1560043
9.4460754 2.0598297 1.0576123
9.7629089 2.0698366 1.0599519
10.182894 2.0232363 1.1019443
-6.1817536 2.7733192 0.89459103
-5.8845015 2.7902966 0.83875275
-4.8059278 2.7957263 1.1861718
-4.5340209 2.7300644 1.098454
-4.1876817 2.6839776 1.0795399
-3.8181407 2.6515071 1.0004679
-3.3856535 2.5931122 1.0637727
-2.9957604 2.6236949 1.0748596
-2.6065712 2.6573806 0.99676877
-2.1913476 2.6449852 0.98182672
-1.806325 2.6247878 0.97030687
-1.3853512 2.7007415 0.98288351
-0.97376728 2.7282996 1.0156318
-0.58478993 2.7347341 1.0045691
-0.19103938 2.7208512 1.0021805
0.20138811 2.6910841 1.0019937
0.6055494 2.6604404 0.99780279
1.0022322 2.6219265 0.99254906
1.3998139 2.5776982 0.98905754
1.7996261 2.5369647 0.99114561
2.2006073 2.5050673 0.98069888
2.5939322 2.4752953 0.98031026
2.9910438 2.4622231 0.98536092
3.3542531 2.4767013 0.97152752
3.7937245 2.4744763 0.9941836
4.1823387 2.4374981 0.99702597
4.5656419 2.4724252 1.0211424
4.9437551 2.5391634 1.1140026
5.4401822 2.4895489 1.1000689
5.680275 2.5146565 1.0187297
6.3505793 2.6845214 0.89987504
6.5325785 2.5910792 0.83128631
7.0201149 2.560499 1.0054145
7.353888 2.7173326 0.85597306
8.0995588 2.7637782 0.95654243
8.7409534 2.5890815 1.0981338
9.1669893 2.4570255 1.1266855
9.3952436 2.4596679 1.1496898
9.7435894 2.459517 1.1848729
11.574763 2.6360364 1.1695255
11.669529 2.697572 1.181888
-23.038567 2.9682081 0.91118801
-9.3035717 2.8837643 0.83074743
-9.0753727 2.8771582 0.81550157
-8.5545712 2.8997245 1.0242628
-8.2051945 2.9444675 1.0125858
-7.8097591 2.9930267 1.0024457
-7.4033418 2.9950755 0.97784746
-6.9739265 2.9917281 0.96612769
-6.5663362 3.0922568 1.0029167
-6.2074676 3.1374288 1.0098268
-5.7936358 3.0984387 0.9895907
-5.3606415 3.1160743 1.0136189
-4.972971 3.1111004 1.0006696
-4.5873747 3.1144776 0.99518341
-4.1686835 3.1277559 0.9873901
-3.7964735 3.103442 0.96025467
-3.3897674 3.0740039 0.95207328
-2.9962947 3.0490849 0.9502942
-2.5972226 3.0177267 0.96297908
-2.1964018 2.9850872 0.96402013
-1.7960471 2.9592962 0.96622813
-1.4015411 2.9210358 0.96602285
-1.0066524 2.8923373 0.97348142
-0.60577124 2.8870773 0.98209679
-0.21863608 2.8814824 0.97678739
0.19832182 2.8919706 0.99597543
0.55784088 2.9442179 1.02652
0.99848956 2.9522278 1.0561752
1.4089988 2.9138734 1.0437378
1.7842593 2.8562117 1.051543
2.2236009 2.8288686 1.0151232
2.5224731 2.8116591 0.927396
3.0669346 2.8533032 0.81498575
3.7840042 2.8335168 0.89726287
4.226048 2.8129895 0.94816524
7.1265926 3.1509542 0.80139434
7.4445434 3.0923276 0.99696815
7.766922 2.9646196 0.98994946
8.0723686 2.8994784 1.1086965
11.497565 2.9321072 1.1844087
11.666252 2.8690541 1.1939903
-12.513815 3.5429065 0.95519698
-12.317964 3.549473 0.95903826
-11.614176 3.5547199 0.97551769
-11.401239 3.5515783 0.98111302
-11.002334 3.5502605 0.99404442
-10.586688 3.5505347 1.0104191
-10.193084 3.5139744 1.021578
-9.7665968 3.5326021 1.0300767
-9.4276819 3.5184817 1.020148
-9.0436058 3.5082729 1.0238382
-8.5696878 3.5198927 1.0452791
-8.1655617 3.5011499 1.0828083
-7.7696347 3.5226872 1.0128862
-7.3930106 3.5023119 1.012714
-7.0016289 3.4750524 1.0114486
-6.5970693 3.4510915 1.0087628
-6.1958747 3.4116664 0.99569952
-5.8034225 3.3751934 1.008845
-5.4091439 3.3358147 1.0089827
-4.9970589 3.3099372 0.99774116
-4.5959382 3.3066237 0.99017608
-4.2190037 3.3308463 0.98328716
-3.8044212 3.3530529 1.0181192
-3.4158831 3.3507445 1.0266575
-3.0040929 3.3249891 1.0315738
-2.6081827 3.2957573 1.010008
-2.2192492 3.252383 0.99151826
-1.8851153 3.2919517 0.95575511
-1.4118632 3.3623343 0.94429332
-0.48947001 3.2030339 1.0359182
0.39294291 3.2024579 1.0548593
5.7286119 3.4079475 1.0740231
6.6757865 3.4661946 0.95692122
6.9458795 3.4356298 0.92924237
7.2459016 3.2169483 1.0512429
11.066434 3.4001243 1.0642375
-16.121063 3.9700823 1.1761267
-15.712086 3.8767586 1.1185689
-15.401321 3.753932 1.0979939
-15.017136 3.6772208 1.0962727
-14.570041 3.7798183 0.98850793
-14.168543 3.7046978 1.0271819
-13.783312 3.834388 1.0601479
-13.400826 3.8553195 1.0577762
-12.995386 3.8119915 1.0689577
-12.589445 3.800596 1.0541896
-12.199244 3.7883956 1.0042914
-11.789112 3.8687763 0.87257338
-11.375802 3.9511774 0.96441346
-10.985521 3.9284518 1.0090135
-10.598199 3.8944075 1.0154656
-10.199292 3.8672264 0.98596495
-9.7941208 3.8437147 0.98168063
-9.4152279 3.8172319 0.99170643
-8.9863405 3.7566428 1.0021068
-8.6020498 3.7251117 0.98900306
-8.2139845 3.6688292 0.99127835
-7.842731 3.6422887 1.0085483
-7.4172511 3.6881616 1.0226142
-7.0134501 3.7649431 0.9292047
-6.6104422 3.8137097 0.94933802
-6.1529698 3.8292212 1.0707852
-5.7874413 3.7533762 1.1004094
-5.4023824 3.7231598 1.0815554
-5.0342607 3.6844828 1.0892047
-4.5833035 3.6370966 1.0558763
-4.2986722 3.6111081 0.97591799
5.7478619 3.7639136 1.081845
6.3049107 3.9591279 1.0724505
6.6023097 3.7247231 1.0226949
6.8600907 3.6650262 0.98163378
7.2268949 3.7433963 0.89615911
11.153494 3.6836431 0.91757506
11.223348 3.9456744 0.80961478
-19.39164 4.3919511 0.97835046
-18.986879 4.3508072 0.92905992
-18.529631 4.3003178 0.87340039
-18.150652 4.2735496 0.82785422
-17.831467 4.3829699 0.85583258
-16.178415 4.0766892 1.1681913
-15.821856 4.0565801 1.1041638
-15.355148 4.1733103 1.0030146
-14.980994 4.2810874 1.0526258
-14.578999 4.2939582 1.0305899
-14.188864 4.2731094 1.0111609
-13.794384 4.2368236 1.0010418
-13.401966 4.2165546 0.9768104
-12.994302 4.1733732 0.9458608
-12.608988 4.142252 0.92776996
-12.206649 4.0928273 0.9348467
-11.786838 4.0540528 0.94637293
-11.469018 4.1158352 0.92061502
-11.030871 4.099987 0.95021045
-10.638861 4.1038861 0.99824309
-10.245945 4.1029134 0.97976077
-9.7620478 4.198349 0.97711045
-9.3748293 4.1307392 0.94273722
-8.995245 4.1690974 0.91405088
-8.6267309 4.2165041 0.91586536
-8.2622194 4.260344 0.96966785
-7.8094401 4.0794382 1.0660683
-7.4245729 4.0745258 1.1668922
-7.0244021 4.0790734 1.1816052
-6.636591 4.0604839 1.085674
-6.360466 4.012958 1.1510442
6.1447868 4.0416451 1.0369651
6.5058188 4.0206842 0.95328629
11.185796 4.1825671 0.81542796
11.273458 4.2591739 0.86545032
-21.175867 4.6743383 1.1992509
-20.065689 4.5284271 1.0931109
-19.792686 4.6573606 1.0753802
-19.415277 4.6943569 1.0460525
-18.979876 4.6707506 0.98858821
-18.563484 4.6950541 0.9996134
-18.186808 4.7032061 0.98341697
-17.791378 4.6774836 0.95312762
-17.435129 4.6618996 0.94638073
-16.986963 4.6224246 0.98342484
-16.603676 4.5978522 1.044687
-16.198433 4.5575104 1.0431007
-15.793643 4.5262151 1.0144757
-15.403275 4.4823647 0.98341614
-15.007685 4.4551287 0.96320868
-14.649145 4.4479442 0.93753815
-14.238507 4.4392872 0.89576828
-11.621859 4.7809463 0.945903
-11.379263 4.742754 0.91608381
-11.05528 4.7044454 0.8767159
-8.5762081 4.6823664 0.93416971
11.175675 4.6784768 0.82736135
11.249516 4.5853996 0.82299024
-21.765259 5.1754675 0.90075332
-21.388391 5.1642332 0.97985405
-20.976891 5.1056094 0.98468226
-20.60688 5.0312872 1.0190234
-20.207861 4.9775486 1.0591768
-19.786575 4.9568 1.0357894
-19.415657 4.9396548 1.0009388
-19.022085 4.9067645 0.9963342
-18.612949 4.8579988 1.0049165
-18.244476 4.8576388 0.94889677
-17.811363 4.8626142 0.97900969
-17.438602 4.8748055 0.96402121
-16.955786 4.8443789 1.0819173
-16.607088 4.8697805 1.0091608
-16.367695 4.8335052 0.97514743
-9.6555347 4.9716821 1.012674
-9.3871527 4.9137578 0.9939509
-9.0182657 4.8259439 0.96798676
11.160291 4.8391824 0.83185261
11.249283 4.9025331 0.83606279
-22.118147 5.2620983 1.0883117
-21.806635 5.2520514 1.090333
-21.387653 5.276907 0.9551304
-21.019432 5.2793512 0.94107544
-20.689194 5.3110218 1.0366724
9.4437218 5.581521 1.0691546
9.8212547 5.5629749 1.0867038
10.220338 5.5466051 0.99693555
10.606246 5.5087376 0.97944087
10.978103 5.4765215 0.97116649
11.346806 5.4329748 0.97123522
5.4218731 5.9773293 0.85328877
5.8264914 5.9758234 0.86910671
6.1719174 5.9801908 0.88071865
6.6737075 5.9677343 0.94750607
7.0193748 5.9344435 1.005235
7.4174671 5.8893723 1.0345508
7.8009877 5.8467298 1.0419134
8.2018461 5.8156447 1.0553795
8.5929365 5.7833457 1.0553352
9.0166273 5.7456279 0.98826218
9.3891134 5.7122207 0.99772346
9.7730875 5.7241964 0.98155105
10.183383 5.7677302 0.95869011
10.584868 5.6791539 0.85349107
10.941257 5.6416774 0.84589195
4.7574282 6.0395355 0.97101128
5.0019021 6.0354805 0.91887552
5.3698807 6.0301867 0.89579332
5.6509399 6.0153785 0.84260994
6.7218223 6.0847354 0.98283434
6.9921274 6.1382985 1.0565398
7.3822393 6.1263604 1.1277797
7.8529358 6.0351381 1.1159066
8.0395031 6.0174189 1.1238241
-12.322133 7.5948181 0.96721298
-10.460908 7.5925622 0.87892026
-10.162012 7.5756364 0.85822761
-9.8086414 7.567297 0.8427031
-9.4408646 7.5656996 0.84811974
-8.9135771 7.5588055 1.0030078
-8.6069698 7.5132422 0.985668
-8.2116632 7.4637079 1.0244501
-7.8487849 7.4352646 1.0374175
-14.115951 7.6630096 1.1843368
-13.747134 7.7585988 1.162658
-13.397444 7.799087 1.0708841
-12.98757 7.7614679 1.025303
-12.567838 7.8157229 0.96407747
-12.193465 7.8797841 1.0241868
-11.786133 7.9098086 1.0230687
-11.402152 7.898941 1.0206445
-11.002641 7.8423476 0.99829292
-10.59566 7.8123527 1.0154309
-10.201515 7.7648368 1.0186305
-9.803504 7.7266536 1.0136459
-9.4017315 7.6790762 1.0334172
-9.0380907 7.6398187 1.0197941
-8.665987 7.6063662 0.97642273
-20.053944 8.3916569 1.0609249
-19.872889 8.3806791 1.0422295
-16.547535 8.3705921 1.1022006
-16.240204 8.3483095 1.0387968
-15.767694 8.3631268 0.9991045
-15.380123 8.3439388 0.96955252
-15.003801 8.3037481 1.0171224
-14.588028 8.2869473 1.0291822
-14.199129 8.2441978 1.0300279
-13.795529 8.1988077 0.9585954
-13.394243 8.1500273 0.95986712
-12.990314 8.1046228 0.9870699
-12.599826 8.0694542 1.0074688
-12.216246 8.0305777 1.0429653
-11.844794 8.0217056 0.97939378
-11.400861 8.0426979 0.88278931
-11.105247 8.0139198 0.86566281
-20.291039 8.4115591 1.0857983
-18.981045 8.7773752 1.0811584
-18.601652 8.7603254 0.96339983
-18.22094 8.7267389 0.90663594
-17.785509 8.6251554 0.95735449
-17.397079 8.5848331 0.9742893
-16.982328 8.5200567 1.0208091
-16.681183 8.5171356 1.0255595
-16.176615 8.5060682 0.88753265
-15.770847 8.5281992 0.88987631
-15.371829 8.5261555 0.96121234
-15.005104 8.4977646 0.94144422
-14.640082 8.4631662 0.99963129
-14.035894 8.4044991 0.82023478
-19.746796 8.8595304 1.1691729
-19.35025 8.8308973 1.0817242
-18.986843 8.8266296 0.96106094
-18.734648 8.8264198 0.9924857
-17.319555 8.8646383 1.1829008
-16.93553 8.8775625 1.143751
-15.234053 -17.566898 1.5876796
-15.191582 -17.361738 1.5492085
-15.062469 -16.879313 1.3930174
-14.773703 -16.800583 1.2172977
5.8816004 -16.873018 1.2021445
6.7356296 -17.075565 1.3436605
-15.276421 -16.567152 1.4868435
-15.137182 -16.65943 1.2754807
-14.764938 -16.761566 1.2072992
2.6051331 -16.50556 1.4736366
2.9716611 -16.596922 1.5291162
3.2911623 -16.415314 1.5942898
6.3310065 -16.42453 1.5402027
6.6426716 -16.444931 1.3882419
7.0450644 -16.454304 1.4030006
7.4184871 -16.471611 1.3697201
7.7571597 -16.433044 1.4335679
8.1889791 -16.469225 1.3732489
8.6643286 -16.498569 1.3957525
8.8426819 -16.450771 1.4334669
-15.253139 -16.219877 1.4980357
1.9767895 -16.004353 1.3178794
2.0811493 -16.03537 1.3338965
2.6447561 -16.232485 1.4917321
2.9947264 -16.296671 1.5448025
3.2245488 -16.348118 1.5801451
3.8290451 -16.119881 1.3163084
4.218225 -16.059284 1.3714466
4.6329422 -16.050858 1.3839995
5.0156107 -16.055468 1.4041163
5.4059138 -16.071087 1.4248971
5.7894282 -16.123568 1.4223305
6.1528091 -16.154293 1.4447222
6.5850692 -16.244873 1.498898
6.9718003 -16.265787 1.4432126
7.4223676 -16.323362 1.4438751
7.7465682 -16.340815 1.3944992
8.2007551 -16.306463 1.397531
8.6582708 -16.282372 1.4033189
8.9193201 -16.185167 1.3918706
-15.221676 -15.998938 1.4633634
-5.7137442 -15.834765 1.5924027
-5.3954992 -15.799126 1.5613524
-4.9981713 -15.804899 1.5322955
-3.5096219 -15.655554 1.5563965
-2.5618184 -15.67695 1.2203276
-2.1911433 -15.678395 1.2089986
-1.9466186 -15.672267 1.2010247
-1.3584181 -15.765587 1.2899004
-0.98281682 -15.754583 1.2728121
-0.59416616 -15.742387 1.2558701
-0.20070857 -15.738842 1.2407641
0.20695519 -15.730508 1.2255911
0.59578764 -15.728701 1.2129818
0.90412366 -15.723671 1.203285
1.4752226 -15.838961 1.249796
1.8149021 -15.732206 1.3024768
2.1805174 -15.733136 1.3584837
2.497422 -15.736976 1.3997797
3.0727162 -15.646977 1.4548844
3.4479325 -15.780042 1.4393656
3.8046932 -15.842831 1.4132463
4.1983161 -15.871786 1.4086107
4.5868263 -15.904486 1.4063305
4.9746056 -15.914141 1.4099845
5.3701596 -15.872962 1.3595377
5.8003216 -15.873609 1.3403841
6.186698 -15.881903 1.366123
6.5582199 -15.872531 1.4177974
6.9081798 -15.820436 1.5363387
7.4054375 -15.822096 1.4488245
7.6736197 -15.806587 1.4868969
9.0667515 -15.858532 1.4184006
-4.1263218 -15.383747 1.4671091
-3.7976043 -15.381041 1.4409074
-3.3671005 -15.232317 1.3837631
-3.0105412 -15.328483 1.4212854
-2.6038828 -15.334009 1.4021916
-2.2047215 -15.389521 1.3831704
-1.7969133 -15.469604 1.3728114
-1.3576314 -15.297459 1.4125472
-1.0030603 -15.298244 1.4480087
-0.58571607 -15.302237 1.4158236
-0.18592742 -15.284923 1.4121037
0.20942557 -15.294443 1.3988342
0.62196159 -15.28682 1.3843297
1.0166283 -15.281201 1.3660022
1.3768235 -15.308967 1.3589591
1.7931763 -15.359976 1.397095
2.2247875 -15.353694 1.4142475
2.5984573 -15.381501 1.3931235
2.9914074 -15.426082 1.3952186
3.3205628 -15.426819 1.4031588
3.7743287 -15.417603 1.4300182
4.0372863 -15.424301 1.4225925
4.6951246 -15.530832 1.2258582
5.0074277 -15.549067 1.2893498
5.4115191 -15.446295 1.4998546
5.7686038 -15.267638 1.5909009
6.2284565 -15.422906 1.2839376
6.6292667 -15.387587 1.3789392
6.9461131 -15.403596 1.4780674
7.3960447 -15.398557 1.4704208
7.7509789 -15.403829 1.4373077
9.1577501 -15.440767 1.4702936
9.2552586 -15.30553 1.4156277
-6.463644 -15.010412 1.4080753
-5.6625481 -14.807205 1.4213905
-5.3885722 -14.825587 1.4424208
-4.9944639 -14.844095 1.4452084
-4.5934544 -14.862851 1.4560307
-4.2365546 -14.879774 1.4444212
-3.7534597 -14.832646 1.4275874
-3.375793 -14.833392 1.3654155
-2.9817154 -14.844942 1.3683006
-2.5858586 -14.860978 1.3801043
-2.1880479 -14.888562 1.3709272
-1.7972994 -14.939199 1.3870406
-1.4018431 -15.005047 1.3858076
-1.0030597 -15.030127 1.3755375
-0.59903294 -15.053478 1.3568687
-0.19976319 -15.073911 1.3605882
0.19910246 -15.107784 1.3565689
0.58925605 -15.139395 1.3613412
0.97098416 -15.143763 1.3849124
1.4571842 -15.07688 1.352908
1.7981706 -15.045866 1.3402133
2.116677 -15.069737 1.3690325
2.57179 -15.072309 1.397635
3.0027492 -15.128024 1.4441066
3.331506 -15.123451 1.4649851
5.5310717 -15.004267 1.524935
5.8001208 -15.022523 1.5601499
6.237886 -15.021709 1.376672
6.5816054 -14.995433 1.3769584
6.9082775 -15.074763 1.4237915
7.4772143 -15.009561 1.5203881
7.7352738 -15.004817 1.4563696
9.2738791 -15.168046 1.4154549
-10.093325 -14.404709 1.2982734
-9.8285007 -14.419118 1.3871524
-9.3964453 -14.419963 1.4701452
-8.9762487 -14.468598 1.5025357
-8.5966587 -14.51713 1.5017458
-8.2157774 -14.534729 1.5033653
-7.6985755 -14.514504 1.4262524
-7.391634 -14.520959 1.4243916
-6.9916 -14.540083 1.4177533
-6.5891376 -14.542223 1.3982482
-6.1932378 -14.565281 1.3984382
-5.7953801 -14.59442 1.3961216
-5.3979206 -14.613385 1.3904674
-5.0034709 -14.632343 1.3773806
-4.6068468 -14.639987 1.3555382
-4.1815844 -14.654255 1.3561426
-3.8110831 -14.681511 1.3786792
-3.4093034 -14.70824 1.3906031
-3.0109622 -14.736224 1.3799384
-2.6242127 -14.737516 1.3667196
-2.2548807 -14.752583 1.3671447
-1.8542278 -14.704999 1.473354
-1.375358 -14.608693 1.2174867
-0.99649173 -14.596082 1.2440983
-0.59058106 -14.674232 1.3260673
-0.19585729 -14.611622 1.314234
0.19168036 -14.714622 1.4089758
0.59222394 -14.733222 1.4951507
0.95125437 -14.760485 1.5656629
1.2597489 -14.795775 1.4223775
1.9555995 -14.764221 1.4034009
2.1830404 -14.776413 1.4763932
3.7837219 -14.650563 1.3115577
5.8176703 -14.64823 1.5114366
6.14538 -14.643003 1.5461432
6.5947156 -14.578682 1.3942579
6.9897137 -14.510123 1.4030417
7.4723754 -14.569461 1.4787282
7.8022995 -14.578061 1.2312925
-14.275417 -14.119087 1.2841431
-13.768262 -14.188666 1.230752
-13.501019 -14.202661 1.202085
-12.976427 -14.005949 1.5606985
-12.479371 -14.030953 1.4791467
-12.168484 -14.054456 1.4493775
-11.779192 -14.076694 1.4500544
-11.405412 -14.120343 1.4534968
-10.997855 -14.15093 1.4591089
-10.609118 -14.191621 1.4576644
-10.189469 -14.144839 1.4220707
-9.7906866 -14.110346 1.4202091
-9.3960295 -14.1353 1.4065765
-8.9995756 -14.173184 1.3923569
-8.6000414 -14.206033 1.3992633
-8.1964703 -14.239334 1.3932568
-7.8049927 -14.271706 1.3779757
-7.3937244 -14.272915 1.3519126
-7.0078397 -14.27925 1.3661989
-6.625175 -14.305143 1.3790644
-6.2289181 -14.33206 1.3626781
-5.8120322 -14.334194 1.4060017
-5.3736715 -14.321943 1.3944498
-4.9678421 -14.364998 1.3581758
-4.5843434 -14.355174 1.30581
-4.3448176 -14.389504 1.3115798
-3.7133243 -14.197965 1.5010605
-3.5340564 -14.20226 1.5614061
-3.0060523 -14.225741 1.2600342
-2.6083183 -14.229361 1.3654799
-2.3778429 -14.229328 1.426525
-1.8747413 -14.240019 1.5614971
-0.832335 -14.305151 1.2166184
-0.57156008 -14.310981 1.2684206
-0.17621002 -14.318872 1.3491758
0.21516399 -14.337674 1.4235276
0.63782179 -14.342107 1.5117619
0.98945552 -14.35849 1.5767754
4.7668285 -14.203575 1.335328
5.0939269 -14.196416 1.4319576
5.4095612 -14.252681 1.395629
5.8022103 -14.274311 1.375163
6.338963 -14.193665 1.2443594
6.6521816 -14.197862 1.2407374
6.9420595 -14.19222 1.4246666
7.3951793 -14.214118 1.4831439
7.8029423 -14.275158 1.2569042
-14.475642 -13.645752 1.5491711
-14.212769 -13.669853 1.4617691
-13.759064 -13.665109 1.4286777
-13.411288 -13.807722 1.4219031
-12.998305 -13.861483 1.416626
-12.607687 -13.890988 1.3965961
-12.223664 -13.906397 1.3997722
-11.821517 -13.872215 1.3494388
-11.382533 -13.858981 1.349692
-10.996512 -13.907173 1.390174
-10.586588 -13.943044 1.3696672
-10.199332 -13.952296 1.4324478
-9.829648 -13.976273 1.4151604
-9.4119501 -13.72066 1.4509099
-8.9963322 -13.732518 1.504367
-8.6090822 -13.771652 1.4721355
-8.1902504 -13.842472 1.4031568
-7.8048744 -13.931429 1.3380879
-7.3812666 -13.856046 1.429979
-6.9980164 -13.7562 1.4937526
-6.6034536 -13.844921 1.4528377
-6.2709699 -13.938916 1.421068
4.1621776 -13.675521 1.5487967
4.7647104 -13.602259 1.279286
5.9219303 -13.953886 1.2165639
6.3844595 -13.752466 1.5369788
6.6746697 -13.807038 1.2636975
6.9693303 -13.818823 1.4056737
7.4121256 -13.810434 1.4888625
7.610507 -13.611482 1.5351789
-14.562575 -13.448277 1.3840557
-14.208966 -13.54183 1.3635941
-13.813889 -13.554027 1.3739773
-13.431803 -13.346195 1.3740724
-12.99675 -13.274782 1.301697
-12.603166 -13.288892 1.2579087
-12.259348 -13.331246 1.2203827
-11.816848 -13.592469 1.590484
-8.8669815 -13.438025 1.4395443
-8.7063265 -13.428441 1.5177827
4.2257638 -13.40668 1.5142077
4.7828631 -13.507532 1.2665551
4.8321104 -13.368364 1.2391255
5.4984589 -13.243454 1.4897799
5.7673044 -13.230106 1.246925
6.1646471 -13.248199 1.3126028
7.0084 -13.570569 1.373702
7.3905993 -13.513562 1.4420338
7.6122947 -13.510827 1.5332659
9.312315 -13.434004 1.4170591
-14.808475 -12.857449 1.5287378
-14.58116 -12.987182 1.3943344
-14.149436 -12.990551 1.4530891
-13.812247 -13.076382 1.3965981
-11.706409 -12.894731 1.5540732
-11.441118 -12.900045 1.5054141
-11.005723 -12.911168 1.4169959
-10.614224 -12.920744 1.3475028
-10.221909 -13.011011 1.2869579
-9.8007479 -13.128218 1.2207942
-8.9248142 -13.097961 1.4692662
-8.6094227 -13.00747 1.5423985
4.2945271 -13.093089 1.4738702
4.9190574 -13.059302 1.2974294
5.4858513 -12.899772 1.3881431
5.6675739 -12.972842 1.3683606
-14.825629 -12.626755 1.4910848
-14.544266 -12.598744 1.3988205
-14.207987 -12.581284 1.4677782
-12.090951 -12.702722 1.5630894
-11.795372 -12.75642 1.5159848
-11.387116 -12.733251 1.4315571
-11.154909 -12.784815 1.3916565
-8.6815186 -12.591661 1.5122875
5.0892925 -12.737341 1.3070544
5.5243478 -12.605964 1.3954915
5.6993465 -12.551005 1.3790793
-14.520511 -12.21456 1.4156066
-14.203865 -12.187574 1.3975934
-13.993605 -12.117674 1.3644874
-8.8358727 -12.236809 1.4979447
-8.7336893 -12.138586 1.5750992
5.5467935 -12.20712 1.4146354
5.6867719 -12.170049 1.373242
-14.490946 -11.800958 1.3973943
-14.307033 -11.779297 1.3243643
-13.972221 -11.819021 1.3239549
-8.8722687 -11.811168 1.5931245
-8.7748251 -11.969076 1.5966226
5.564187 -11.868365 1.3979211
5.8176394 -11.792908 1.3926257
6.0606441 -11.707 1.3702867
7.8825479 -11.626584 1.4735383
8.1991453 -11.702142 1.5038698
8.4664698 -11.704926 1.5225158
9.1586285 -11.618063 1.242609
-14.472994 -11.423911 1.3899294
-14.342497 -11.371023 1.35612
-13.94027 -11.412662 1.2688136
-11.735837 -11.31763 1.4321601
5.4044914 -11.37762 1.5057613
5.8873177 -11.426931 1.4156102
6.0649915 -11.360322 1.3547961
6.716217 -11.342606 1.3645277
6.9938965 -11.411089 1.390093
7.3792686 -11.435025 1.4428394
7.6675448 -11.485175 1.4902344
8.5428572 -11.426688 1.4951978
9.1802521 -11.533966 1.2407588
9.2306738 -11.332309 1.2364833
-14.468758 -11.015622 1.3752271
-14.346289 -11.00012 1.3847485
-13.943204 -10.998312 1.2405002
5.3834009 -10.969618 1.392747
5.7942152 -11.005508 1.4392354
6.1049967 -11.016786 1.363838
6.551156 -10.934623 1.4824008
7.0001898 -11.141121 1.4043159
7.9134035 -10.847382 1.3072819
8.1701317 -10.896612 1.3657072
8.6215277 -11.006892 1.4564389
8.8409853 -11.037148 1.5201226
9.2267122 -11.167912 1.2259676
-14.452072 -10.612018 1.3893332
-14.319735 -10.59701 1.36757
-13.959465 -10.5616 1.2255571
5.4543419 -10.727968 1.3664989
5.7823901 -10.54999 1.4006915
6.1430407 -10.68014 1.3864999
6.5411816 -10.619397 1.5320349
7.5191355 -10.512636 1.3098654
7.7742071 -10.477442 1.2710441
8.2464037 -10.456173 1.2605132
8.6505108 -10.525598 1.3906386
8.9221048 -10.443382 1.3480418
9.4734869 -10.435248 1.3601916
9.650878 -10.440357 1.3148619
-14.424382 -10.246387 1.3924818
-14.280561 -10.185651 1.3773582
5.8070059 -10.1919 1.3852481
6.2085476 -10.098418 1.3639534
6.5951614 -10.076161 1.3903483
7.0017443 -10.088984 1.3950306
7.4030695 -10.130313 1.3892987
7.8017592 -10.169674 1.3844421
8.1938801 -10.205932 1.3867522
8.5880375 -10.23775 1.3679948
9.0113192 -10.265482 1.3675272
9.424634 -10.25444 1.3882931
9.6820002 -10.17912 1.3893138
10.082097 -10.098466 1.4679976
-14.242872 -9.7991648 1.3835517
-13.989112 -9.6606331 1.5507432
-8.3583679 -9.7017441 1.5956122
5.875916 -9.9142904 1.4113826
6.196991 -9.8852921 1.396197
6.5821834 -9.8895931 1.3914474
6.9494543 -9.8589725 1.3694104
7.4124808 -9.7900743 1.4629949
7.8251953 -9.8339272 1.4283832
8.1685629 -9.8862219 1.3505231
8.6215057 -9.8770847 1.2921472
8.9805088 -9.8603897 1.338081
9.4831886 -9.8502111 1.4169657
9.7304983 -9.7999573 1.377744
10.164311 -9.8491163 1.4457788
-14.193593 -9.3960781 1.3877584
-13.963226 -9.3957186 1.5004556
-8.2716093 -9.3943758 1.5797302
5.783762 -9.5189085 1.3718534
6.3913684 -9.4503679 1.2815766
6.4060612 -9.5738077 1.3036771
8.3723145 -9.3733196 1.2455351
8.6048641 -9.3663149 1.2925683
8.9974813 -9.3675022 1.3338196
9.5171537 -9.4420013 1.4463726
9.7644472 -9.396142 1.3847162
10.169221 -9.4076672 1.4102647
-14.144721 -8.9970989 1.3577702
-13.926659 -8.9984016 1.4258503
-8.2773857 -9.0057297 1.5600718
8.9950895 -8.9635744 1.2715095
9.3974581 -8.9631758 1.4122374
9.8075905 -8.9990568 1.3874701
10.163385 -8.9844313 1.4489627
-14.096365 -8.5956259 1.3511181
-13.844638 -8.5581436 1.4263266
-8.4084778 -8.498703 1.5615964
-8.2756824 -8.6322794 1.5339025
9.8444843 -8.6024561 1.4019183
10.191599 -8.6006365 1.3958073
-14.053822 -8.2112713 1.3650715
-13.920502 -8.1406326 1.368733
-13.522935 -8.1327591 1.5747498
-8.420311 -8.2972546 1.5525057
-8.1593904 -8.1831007 1.4848528
9.8838863 -8.1961403 1.4060003
10.172774 -8.1675873 1.4071958
-14.038568 -7.8442693 1.4093908
-13.950461 -7.755033 1.3566178
-13.502433 -7.8134713 1.5210785
-11.377728 -7.6594834 1.48384
-8.1104174 -7.7783661 1.4596905
9.9131813 -7.8119907 1.4030591
10.11537 -7.7686462 1.3784425
-14.05416 -7.4219112 1.4810475
-13.925258 -7.3965874 1.3617253
-13.472353 -7.4158196 1.4546711
-11.364635 -7.5333772 1.4805791
-8.0905313 -7.347641 1.4242877
-1.2913185 -7.2679238 1.5517647
9.8398743 -7.3924365 1.3979286
10.022145 -7.45257 1.4111456
10.403508 -7.5812597 1.5178624
-14.079098 -6.9869032 1.5656092
-13.885139 -6.9940829 1.3775135
-13.42437 -6.9901214 1.3830059
-8.1068554 -7.035449 1.3914295
-1.3276452 -6.9654059 1.534295
3.8775818 -6.9027662 1.4213762
4.1135373 -6.9627814 1.4015741
9.8845949 -7.033071 1.4030225
10.061096 -6.8928161 1.3785741
-14.025498 -6.6504669 1.5552039
-13.852103 -6.5987029 1.4042678
-13.467953 -6.6100893 1.303709
