# .PCD v0.7 - Point Cloud Data file format
VERSION 0.7
FIELDS x y z intensity
SIZE 4 4 4 4
TYPE F F F F
COUNT 1 1 1 1
WIDTH 1287
HEIGHT 1
VIEWPOINT 0 0 0 1 0 0 0
POINTS 1287
DATA ascii
8.2007666 -3.8706555 1.0470114 14
9.5427771 -3.8548594 1.0611219 22
9.6423693 -3.8595722 1.0652174 17.5
-3.4352341 -3.7336547 1.0207391 43
-3.3140478 -3.6752036 1.0567185 52.090908
8.2176104 -3.6847291 1.0491636 4.5
9.4958191 -3.6976409 1.0678172 32.14706
9.6569891 -3.7414916 1.0880171 35.666668
-3.2976649 -3.5002584 1.0542076 46.866665
-3.1700592 -3.4635067 1.0668094 63.75
8.2669325 -3.4993875 1.0515947 3.125
9.5036211 -3.5106392 1.0584038 35.708332
9.6658525 -3.4287934 1.1151235 27.142857
9.8383284 -3.4264812 1.0315915 25.333334
10.278454 -3.4434485 1.0462766 23
-3.2423697 -3.3169699 1.0978253 46.76923
-3.1243446 -3.2912095 1.054237 58.545456
4.8999405 -3.268167 1.0538887 38.599998
5.074409 -3.3393636 1.0204592 76.07692
9.508688 -3.3395081 1.0466706 33
9.6883326 -3.3241081 1.0617731 20.25
9.9092388 -3.2597134 1.0385014 24.285715
10.087828 -3.3076825 1.0523679 2.5
-3.2004809 -3.1980753 1.1859529 49
-3.1207135 -3.1283979 1.0765669 54
-2.9866502 -3.0480435 1.0566533 67.666664
4.3281512 -3.0101173 1.1168004 26.333334
4.5226884 -3.069905 1.115432 20
4.6885862 -3.0845859 1.1164101 19.25
4.8488278 -3.0779757 1.1791607 26
5.8427186 -3.0482357 1.0264966 9.5
9.6011848 -3.1038496 1.0443919 28
-2.9152839 -2.9005919 1.0531399 68.625
3.9741583 -2.850004 1.1306382 25
4.0954919 -2.9092526 1.1035475 26.700001
4.232666 -2.9645634 1.1094283 27
4.4949732 -2.9205804 1.1701458 6
4.679842 -2.8912008 1.1018084 20.875
-2.8711703 -2.6990778 1.1183437 57.96154
-2.7889464 -2.6310592 1.0467883 70.5
4.5348129 -2.7559633 1.0920178 17.75
4.7218142 -2.7193351 1.0804389 18.3125
4.887857 -2.7061548 1.0227944 21.333334
5.1137052 -2.6271091 1.0997405 17
8.9981861 -2.7265019 1.0454017 35
9.0821314 -2.6924248 1.1255417 42.333332
-2.8466201 -2.5458069 1.1189729 24.875
-2.7756922 -2.4946241 1.0138284 55.75
4.7161112 -2.526484 1.0976043 12.357142
4.9274235 -2.477788 1.095661 8.5
5.0733995 -2.5851543 1.0987806 10
9.0567255 -2.4720261 1.1135408 8
-2.7117786 -2.283143 1.0851048 47.055557
5.0476761 -2.325176 1.0290184 12.166667
6.4807019 -2.2307684 1.1190253 12
-2.634352 -2.1219985 1.1015921 52.473682
-2.5676959 -2.0594556 1.0199397 43.875
2.5172935 -2.1481273 1.1159822 10
6.3746276 -2.0803511 1.1039389 17.727272
6.4749565 -2.0807967 1.0893896 22.166666
6.6578074 -2.0900035 1.0847359 21
7.1196976 -2.0267472 1.1365383 27.5
-2.5006187 -1.8992281 1.0427667 79.875
6.3851914 -1.9275773 1.1691368 19.25
6.4741125 -1.9296324 1.1012425 21.944445
6.7488055 -1.8591619 1.089837 26
6.9176545 -1.8856139 1.1003633 29.555555
7.1214762 -1.915284 1.1160691 26
7.3131108 -1.975391 1.1907079 27
-2.4319453 -1.7712228 1.0670393 82.400002
6.3790283 -1.6202765 1.1909208 32.5
6.4969001 -1.6875215 1.1843151 27.666666
6.7071776 -1.7325577 1.1376904 25
6.8714328 -1.7625295 1.1745368 14
-1.130442 -1.4250755 1.1501433 8.666667
-0.95798874 -1.4907627 1.0815389 8
6.1348343 -1.4716487 1.1778518 68.36364
6.2618246 -1.5686133 1.1864554 32
6.4735804 -1.5949838 1.1601944 24
-1.4373302 -1.2126118 1.1340928 5.5
-1.3017781 -1.2574407 1.1241974 5
-1.1135347 -1.3322375 1.0982847 5.7142859
5.9302335 -1.2855241 1.1710445 8.833333
6.0488429 -1.3863615 1.1767348 30.666666
-2.0744872 -1.0283668 1.1350763 79.285713
-1.745382 -1.0352911 1.045192 2.3333333
-1.5062654 -1.13569 1.1292659 7.9285712
-1.3930969 -1.183954 1.0974658 6
5.9061141 -1.1684612 1.1694728 7
-2.0546768 -0.90822011 1.1132836 75.151512
-1.9813859 -0.83177614 1.0622909 65.5
-1.6260872 -0.8767162 1.0729722 1
-2.0121775 -0.78277862 1.025604 34
-1.9306651 -0.73791432 1.0817933 86.272728
-1.7182064 -0.66492784 1.0923719 87.0625
-1.5994329 -0.60431838 1.0156829 95
-1.358675 -0.67154455 1.0309399 1
-1.6450199 -0.50698406 1.0906475 95.666664
-1.5684873 -0.46265075 1.0412295 96.53846
-1.6488746 -0.28076485 1.1254588 37.333332
-1.5403925 -0.31937379 1.0685217 83.91304
-2.0547352 -0.029206038 1.0503861 22
-1.8787464 -0.079704665 1.0649924 23.833334
-1.7119586 -0.15970713 1.0821524 27
-2.4716382 0.16150215 1.0710208 26.857143
-2.3034585 0.1033666 1.0684869 26.714285
-2.0687423 0.15380105 1.049081 32.111111
-1.987988 0.18078113 1.0555556 36
1.9856458 0.095794201 1.1262487 18
2.1167459 0.10844895 1.1290498 25.625
-2.8795912 0.35610837 1.0552826 25.6
-2.6896234 0.26079133 1.0682273 26.818182
-2.5396016 0.28689599 1.0562164 27.333334
-2.2655239 0.30001205 1.0683558 26.200001
-2.0660944 0.29828933 1.0606936 35.227272
-1.9598566 0.27505809 1.0560944 38.42857
1.9672501 0.345487 1.1305313 25.5
-3.0954359 0.45490041 1.0345211 21.666666
-2.9573071 0.40595043 1.1049989 26
-2.4818337 0.42508483 1.0975244 43
-2.2696109 0.45700127 1.083666 34.5
-2.0791109 0.41244394 1.0699354 33.125
-1.9826213 0.42190641 1.0468178 33.25
11.394521 0.54867482 1.1358392 26.5
-3.0671129 0.69943261 1.1590489 12.666667
-2.8780489 0.75937408 1.0615736 24.666666
-2.7862384 0.74333549 1.0942296 25
11.454616 0.69712555 1.1345999 34
-3.2135808 0.94921291 1.095485 44
-3.0734956 0.90631771 1.0945181 42
-2.939383 0.84680194 1.0477037 25.571428
11.561121 0.92262554 1.132849 34
11.651156 1.1151991 1.1313262 32.666668
-4.9351096 1.3330597 1.1413848 29.333334
-4.2193484 1.3229879 1.1903239 99
-4.0627432 1.2821287 1.079307 48.5
-3.9249725 1.2245328 1.1201982 40.5
11.729154 1.2839545 1.1299695 33
-5.0800042 1.551582 1.1059077 95.777779
-4.8759389 1.4935551 1.0948834 1
-4.2446008 1.5225643 1.0198683 34.166668
-4.1354437 1.4866316 1.0413463 25.200001
-3.9506311 1.5104092 1.0267779 20.59091
-0.2865096 1.5725409 1.0722032 25
11.788147 1.4066186 1.1290011 34
11.835797 1.504565 1.1282296 32.5
-5.2299747 1.7279586 1.0704453 21.363636
-5.1396689 1.7139561 1.0556954 30.785715
-4.2868338 1.6821454 1.0047821 32
-4.0689321 1.6692504 1.0261866 17.933332
-3.9661498 1.6478417 1.0189731 23.90909
-0.64010531 1.7155252 1.0764571 82.63636
-0.51063246 1.6939777 1.0456177 49.75
-0.28366756 1.6198241 1.0499861 23
11.926584 1.7005291 1.1266278 33.5
-5.2291894 1.8927257 1.1523095 5.6363635
-5.1284466 1.8861622 1.0626484 14.5625
-2.0210519 1.985728 1.0793839 20
-1.9131892 1.9408134 1.0679632 21.266666
-1.7906868 1.8846482 1.0265952 30
-1.3143167 1.9942986 1.0988905 27
-1.0435243 1.8830223 1.0627052 27.666666
-0.95949495 1.8571471 1.0537975 21.5
-0.67500854 1.807018 1.029649 79
3.7010758 1.8706428 1.0770587 83.666664
12.030937 1.917136 1.1248887 33
-5.3098402 2.0680542 1.162076 7
-5.0927305 2.1372702 1.0981851 13.944445
-4.9763103 2.1542404 1.0560917 23.5625
-2.0481968 2.1132276 1.0597994 26.200001
-1.8936102 2.1104157 1.0594141 23.424242
-1.7554703 2.0903127 1.0646718 27.5625
-1.5014013 2.1727662 1.0746518 27.200001
-1.3316007 2.0974309 1.0694009 25.25
3.765887 2.0935533 1.0806195 14.333333
12.125927 2.1125991 1.123317 33.333332
-5.0166988 2.256989 1.0862143 16.5
-4.9409695 2.3070517 1.0507673 25.746666
-4.4717627 2.3323472 1.1100953 37
-4.3208165 2.3449819 1.0487791 54.380951
-4.1062555 2.3691175 1.0009069 54.5
-2.0327559 2.3343656 1.1002747 25.333334
-1.9115299 2.3075631 1.0582737 25.719999
-1.6845329 2.255645 1.0731883 28.363636
-1.5183287 2.2142878 1.0918685 26
12.195318 2.265027 1.1220337 34
12.235813 2.3492684 1.1213458 35
-4.8855562 2.4766812 1.0607868 19.224138
-4.7695994 2.5271933 1.0572083 24.25
-4.4197083 2.4094877 1.1150326 63.666668
-4.2864876 2.4861531 1.0761805 57.962265
-4.135632 2.5188854 1.016358 58
-2.2095752 2.4273109 1.1215787 29
-2.0788164 2.4453471 1.0371691 32.333332
-1.9689069 2.4247413 1.0893307 30.5
12.283215 2.4621537 1.1203439 33.5
-4.8871002 2.6059191 1.0006979 23
-4.7329588 2.7065747 1.090956 20.846153
-4.4273314 2.7591105 1.0536894 19.333334
-4.2934456 2.7102599 1.1038681 42.125
-4.1776648 2.6806586 1.1420082 43.285713
-2.3943803 2.6607475 1.125693 103
-4.8242555 2.9517417 1.1337178 3
-4.6500425 2.9224315 1.0627289 17.423077
-4.2747755 2.8730574 1.0964196 13.592592
-4.191524 2.9672606 1.0403345 56.5
-3.8370273 2.9700654 1.1999607 25
-3.6875169 2.9130521 1.1455472 29.125
-3.5005939 2.9114742 1.1256542 19.5
-3.3194542 2.9213936 1.1730293 9
-3.0591099 2.9261296 1.1719574 12.5
-2.9621861 2.9389093 1.1215825 1
4.0756636 2.9383214 1.1143526 67
-4.8067575 3.0017798 1.1337726 3
-4.6899056 3.0528436 1.0757549 8.5
-4.5398526 3.1170635 1.0688058 15.018867
-4.3049016 3.1273534 1.1114123 40.941177
-4.0475488 3.165997 1.1165893 36.933334
-3.9385152 3.1311777 1.1142509 29.875
-3.7023859 3.0929751 1.0812685 31.0625
-3.5140905 3.0897679 1.1781849 36
-3.3201315 3.035892 1.1704912 29.75
4.1564245 3.095849 1.0940447 53.545456
4.2072845 3.1878312 1.0753064 52.666668
-4.6349401 3.2123251 1.1316167 19
-4.5017285 3.2671847 1.0796463 23.555555
-4.2972317 3.2559967 1.0740801 86.756096
-4.1027012 3.3181624 1.1309255 50.900002
-3.9161465 3.2810261 1.1236796 26.666666
-3.7343903 3.2093964 1.1599426 35.333332
-3.186873 3.2570059 1.1731653 31
4.2414489 3.269115 1.0664933 32.799999
-4.1435804 3.4348006 1.1739829 81
-3.4988236 3.4690161 1.1871701 1
-3.713758 3.6717982 1.1984309 32
-3.5172427 3.7391987 1.1061878 19.333334
-3.5719032 3.8811615 1.1347926 33.599998
-3.470752 4.1027813 1.1219059 16
1.7859973 4.0530148 1.1589656 68
1.8517189 4.0481391 1.1611063 45.400002
43.57793 -20.41655 1.2698071 59
43.694794 -20.437778 1.254113 98
43.716778 -20.300692 1.2594174 141.66667
43.733681 -20.121487 1.2887938 70.400002
43.894604 -20.066122 1.2576261 29
43.839027 -19.94368 1.2895759 35.25
44.011204 -19.882332 1.2592471 13
43.916687 -19.707989 1.2596456 53
44.065903 -19.48518 1.3865546 34
3.2790678 -15.565248 1.2593794 6
34.098698 -14.887567 1.2787819 32
34.231461 -14.868616 1.210426 24
34.165192 -14.711856 1.3178805 20.333334
-2.3938189 -10.800892 1.3242005 95
-2.8354542 -10.622968 1.2828131 27
-2.7014966 -10.682693 1.2854766 81.85714
-2.4809206 -10.7716 1.3099322 85.099998
-2.3509998 -10.684563 1.3291706 35
-2.2843914 -10.516755 1.309068 28.333334
-2.2544129 -10.380475 1.2791688 26
-2.1874113 -10.30112 1.3029104 27.666666
-2.0976801 -10.118436 1.3028177 28.200001
-2.0287967 -9.922513 1.2869313 30.5
-1.9598871 -9.8564672 1.3020695 28.666666
-1.9121255 -9.6865711 1.2789896 28.75
3.9621143 -9.617301 1.3951716 5.3333335
4.0403113 -9.6249533 1.3967742 18
4.2069178 -9.6051664 1.3988519 31
-1.8274486 -9.5216303 1.283843 30.5
-1.7515184 -9.4323254 1.2902238 28
3.3559415 -9.415761 1.3786378 1
3.8957756 -9.5415859 1.3910688 18.25
4.1540074 -9.5268307 1.3947296 30.666666
4.2554717 -9.5571775 1.3977655 30.5
-1.7307469 -9.2967491 1.271567 30.4
3.4987242 -9.3474579 1.3777711 3.2857144
3.726095 -9.275466 1.3837165 49.18182
3.8718493 -9.302227 1.389196 84.833336
-1.6405885 -9.1103058 1.2714398 24
-1.5887847 -9.0800686 1.2815648 32
5.1325755 -9.0403442 1.3943065 5.5
-1.5263758 -8.9050055 1.275098 32.25
-1.448658 -8.7245302 1.2688366 33
-1.3926733 -8.6661034 1.271531 28
-1.3447719 -8.5071964 1.2636645 29.25
5.3325253 -8.5156307 1.3707225 4.75
-1.2770361 -8.3426323 1.2572345 25.666666
3.5697193 -8.1549063 1.3868196 29
3.6245019 -8.0299397 1.3810734 29
16.313091 -8.1028957 1.3173283 25
3.6883419 -7.8959513 1.3748744 28.5
16.128246 -7.9409866 1.3131834 29
3.7725196 -7.7220707 1.3668299 28.5
3.8274648 -7.6044655 1.3614175 28
16.195812 -7.7669029 1.2594377 3
16.330267 -7.7060676 1.2629632 11.333333
3.8797355 -7.4924965 1.3562741 28.5
-1.0845096 -7.2776241 1.2668884 4
3.9660013 -7.3111935 1.3479465 28.333334
17.703957 -7.298696 1.3336463 36.666668
-1.0268766 -7.1411085 1.2494775 3.25
-0.98292565 -7.0548472 1.2596194 3.3333333
4.0588212 -7.1130576 1.338888 28.333334
8.1236219 -7.0880036 1.3472515 60.666668
-0.89949298 -6.8917818 1.2669202 2.6363637
4.1336975 -6.9558277 1.3317082 27.5
-0.85110897 -6.6766467 1.3872604 2
-0.7362777 -6.6248264 1.384238 18
12.805027 -6.6087728 1.2154012 33
-0.73197901 -6.5238214 1.3541635 16.5
-0.13134673 -6.4579158 1.3317308 42
12.068499 -6.4158592 1.2974663 18
12.303945 -6.5140252 1.2707158 27.666666
12.704951 -6.4680171 1.308327 36.153847
12.871276 -6.4665256 1.3188972 27.272728
-0.6315372 -6.3867736 1.3671356 20.833334
-0.51006389 -6.3096938 1.372993 65.916664
-0.30913094 -6.3473496 1.3900291 94.75
11.950552 -6.308713 1.3405707 27
12.136167 -6.3198709 1.319993 27.285715
12.277745 -6.3174672 1.3499117 27.200001
12.736825 -6.2617583 1.3694693 10.5
12.880647 -6.3069963 1.2676845 27.363636
13.028748 -6.2298341 1.2262863 20.666666
-0.49543846 -6.059123 1.303663 1
-0.23561788 -6.0318885 1.3677578 1
-0.18622279 -6.1373186 1.376178 1
10.431671 -6.0154085 1.2523791 4
10.95612 -6.037343 1.3602569 28
11.054844 -6.0390778 1.3307005 62.666668
11.476156 -6.0833755 1.3443516 66.5
-1.8557833 -5.8224649 1.3168852 93.684212
-1.7002534 -5.8850045 1.3164696 93.484848
-1.5278684 -5.9616413 1.3107386 50.739132
10.355931 -5.8959532 1.3537487 10.571428
10.455877 -5.8816671 1.2990317 11.142858
10.743127 -5.8686728 1.3522532 26.222221
10.906865 -5.8781509 1.340886 31
11.109844 -5.8980546 1.3469366 58.133335
11.300083 -5.9321885 1.3502563 53.636364
-2.4194908 -5.6038513 1.3180717 96
-2.2709134 -5.6356483 1.3082234 96.097565
-2.0996182 -5.7074118 1.3132982 96.180328
-1.9409273 -5.7725005 1.3306832 96.133331
10.483441 -5.7787971 1.2827253 14.8
10.766996 -5.7893429 1.3698415 27.5
10.901887 -5.7720604 1.381675 31
-2.8139515 -5.4165154 1.3180718 96
-2.6813309 -5.4422746 1.2990617 96.214287
-2.5064728 -5.5204191 1.3072846 96.290321
-2.3582513 -5.5799875 1.3138334 96.36364
-3.2400274 -5.2130489 1.3257221 95.5
-3.0998011 -5.2552118 1.2923927 93.861542
-2.899261 -5.3374743 1.3015569 94.788734
-2.7632043 -5.3869424 1.3235419 96.384613
9.2798996 -5.2261467 1.357151 25
-3.6444266 -5.0205197 1.3152796 89.26667
-3.4968944 -5.071312 1.2952542 91.476921
-3.3067813 -5.1536016 1.288125 93.018181
-3.1972907 -5.19382 1.2791611 96.5
8.7756767 -5.0227566 1.2995218 27
8.9049911 -5.0605116 1.285185 28.25
9.189827 -5.1795979 1.3104957 24
-4.0492711 -4.8253627 1.3223723 82.833336
-3.8996189 -4.883503 1.3031899 90.973686
-3.7214541 -4.9609756 1.2904403 93.818184
8.678071 -4.9691582 1.2952688 24
-4.2320824 -4.7044082 1.2908318 11.25
-4.1326885 -4.7576709 1.2894095 76.090912
-1.481655 -4.6461363 1.2192892 49.42857
-1.3140502 -4.6233048 1.2363846 62.909092
8.1868343 -4.7300358 1.2605628 1
7.4613466 -4.404963 1.2002767 15
7.7862096 -4.4734097 1.3257639 12
7.9093695 -4.5130515 1.3055655 15.2
8.1117954 -4.4050684 1.337727 39
6.9700274 -4.2100439 1.2779614 6
7.7352395 -4.2931142 1.3226091 23.76923
7.9442921 -4.2905445 1.2985982 22.818182
8.0583429 -4.3065381 1.2803756 23.357143
-3.4103029 -4.0263181 1.2983038 36
7.7609835 -4.1084089 1.310051 22.5
7.9053555 -4.1719308 1.3098178 19.111111
8.0374451 -4.1757994 1.3033586 20
-3.4686975 -3.8761878 1.2332308 37
-3.3622711 -3.8930397 1.2909766 57.166668
8.1088409 -3.8188801 1.3585593 18
9.49265 -3.8253675 1.2789161 12.6
9.6502924 -3.8819726 1.3382521 4
-3.4307618 -3.731107 1.2161725 40
-3.3205767 -3.6719856 1.2677357 49.75
8.1326513 -3.7082448 1.3589731 25.4
9.3812351 -3.6555569 1.2416679 31.333334
9.4985771 -3.6964591 1.3022362 27.4
-3.2935467 -3.5067816 1.272451 46.705883
-3.1709518 -3.4646289 1.2669092 62.25
5.3729124 -3.4560559 1.3329875 26
8.1463203 -3.5234671 1.3586136 32.5
8.226368 -3.4246645 1.3615177 28
8.4423952 -3.4027162 1.3705626 16
9.3956976 -3.5920775 1.2681831 34
9.4964437 -3.5030606 1.2859259 34
9.6767244 -3.4533587 1.3277262 30.333334
-3.2328839 -3.3396676 1.3048853 54.466667
-3.1470482 -3.2819211 1.2499008 56.545456
-2.9776585 -3.3005996 1.2181458 1
4.9075208 -3.2639165 1.2920103 37
5.0746741 -3.2859986 1.3237315 57.285713
5.2469759 -3.3752022 1.237335 24
8.2989407 -3.3894575 1.3644254 23.5
8.4895744 -3.3890266 1.3725014 8
9.5133457 -3.3485796 1.2837387 31.705883
9.6841764 -3.3122625 1.282994 29.60606
9.8342991 -3.2841716 1.2966527 17.75
-3.2018847 -3.1953847 1.365092 52
-3.0991139 -3.1113517 1.2446399 49.666668
-2.9866688 -3.0461762 1.2441713 65.333336
4.3458533 -3.0333006 1.330851 25.666666
4.5099177 -3.102576 1.3088844 25.200001
4.6614962 -3.1179936 1.2833856 24.555555
4.8927445 -3.0876331 1.3013897 17.5
5.0180769 -3.1479278 1.3731939 24
9.3547945 -3.0231714 1.3155956 29
9.5149889 -3.0945568 1.2748526 34.555557
9.6523504 -3.137646 1.2386746 26.333334
-3.0359871 -2.9434009 1.2064199 36.5
-2.9382129 -2.8714328 1.2407573 54.75
3.9568217 -2.8404403 1.3040457 24
4.1080899 -2.9188209 1.3293527 24.375
4.2484255 -2.9849052 1.3372298 26
4.5920992 -2.8267679 1.3567598 8.5
4.6914802 -2.8520217 1.2564876 18.5
4.8230896 -2.8590193 1.2539409 12
5.0861626 -2.8123126 1.3648727 16
9.0719414 -2.846601 1.2858793 31.857143
9.2800856 -2.9498382 1.294717 29
-2.8686535 -2.6997116 1.27174 63.370369
-2.7893517 -2.6208227 1.3386501 70
4.7105083 -2.6856208 1.2268411 19
4.8951325 -2.659771 1.2178326 28.333334
5.1111073 -2.7867568 1.3662906 13
8.6371708 -2.6507459 1.3572679 1
8.957037 -2.7165737 1.3295741 36.75
9.0527401 -2.7417414 1.3154708 40.333332
-2.8316767 -2.5171402 1.3229156 80.909088
-2.7764039 -2.5022395 1.2693534 77.222221
4.6880703 -2.5958271 1.2088753 29
8.6994762 -2.526824 1.2404921 1
8.9763098 -2.5097675 1.3361782 22.428572
9.0122337 -2.4765196 1.3055956 16.25
-2.7059956 -2.2822416 1.3194475 84
6.6481624 -2.2467337 1.289444 8
9.0214605 -2.3992908 1.3232685 9
-2.6322787 -2.1344821 1.31724 81.96154
-2.5767515 -2.0529401 1.2858311 82.3125
6.3566313 -2.1700404 1.2045569 8.5
6.4853172 -2.0585561 1.2301399 18.75
6.6630917 -2.0188901 1.3039269 39
6.8710146 -2.0537426 1.2609217 61.599998
7.1304874 -2.0237236 1.3260602 28
7.2663422 -2.034497 1.2800716 23.333334
7.492238 -2.0997128 1.2626798 45.5
-2.5107145 -1.9097977 1.2881517 85.794121
6.5222602 -1.9102111 1.2300967 20.375
6.7018123 -1.9082123 1.2267414 26.5
6.9031615 -1.8693835 1.2495522 27.700001
7.0710564 -1.9431095 1.2427273 26.25
-2.4421906 -1.7706957 1.2830505 87.800003
-1.1278048 -1.62554 1.2891442 8
-0.99747467 -1.6083658 1.2834505 11
6.4824219 -1.6331356 1.2360579 12
6.6979122 -1.7462946 1.2539794 26.666666
6.8267651 -1.7749501 1.317784 3.5
-1.0610994 -1.4210951 1.3227842 15.4
-0.9643774 -1.5197573 1.2803048 11.875
5.9023747 -1.4142621 1.3893037 1
6.1317372 -1.4531455 1.3819585 75.166664
6.3045855 -1.5089616 1.3446448 26
6.4560108 -1.5768118 1.3558514 26.5
-1.4219033 -1.2226348 1.3484572 5
-1.2879032 -1.2569978 1.3092529 5.5
-1.1087229 -1.3392161 1.3059039 6.0769229
5.9262881 -1.2797135 1.3808714 9
6.0566297 -1.3904507 1.3986429 32
-2.0675044 -1.0237836 1.3521001 79.125
-1.6255164 -1.0281222 1.3642131 5
-1.4774145 -1.1329644 1.3220527 5.3333335
-1.3695643 -1.1842332 1.2987387 5.1999998
5.7412839 -1.0389922 1.359327 6
5.8936419 -1.1533077 1.3741428 5.7142859
-2.0505483 -0.90565568 1.337221 95.976746
-1.9797771 -0.82968688 1.3339757 91.454544
-1.6672297 -0.89825654 1.3067684 1
-2.0856533 -0.76623571 1.3620849 64.199997
-1.934047 -0.74155855 1.3218613 96.264709
-1.7184927 -0.66169357 1.3215057 91.027779
-1.6542645 -0.51609379 1.3092825 90.599998
-1.57822 -0.45343348 1.3147542 96.272728
-1.6182098 -0.38891423 1.2762952 95
-1.5453502 -0.31322604 1.300377 89.536583
-1.8928893 -0.07777983 1.2832303 28.5
-1.7218254 -0.15859318 1.278226 28
-2.4619188 0.17687905 1.2792126 26.666666
-2.2926178 0.11430439 1.2827286 30.111111
-2.0951769 0.091604903 1.3127503 34.599998
-1.9200861 0.12164573 1.3204334 37.450001
-1.7672844 0.10491943 1.320379 6.5
1.9871376 0.18552315 1.3140185 34
2.0663619 0.12234511 1.3109015 20.6
2.2414696 0.17534983 1.3266702 14
2.9839778 0.072461009 1.3239524 84.5
-2.8872192 0.37539399 1.2821996 27.5
-2.6829402 0.27951717 1.2760174 27.25
-2.5428047 0.22255516 1.2790474 25
-2.3562386 0.27839351 1.248719 28
-2.0634611 0.3230736 1.2653872 34
-1.8929574 0.29173398 1.3031291 36.241379
1.982059 0.24930906 1.3331442 26
2.0931795 0.30739307 1.3363912 16.200001
-2.2559025 0.52816296 1.256116 26
-2.0662119 0.50031573 1.3011578 32.666668
-1.9477683 0.43766099 1.2911097 31.142857
-1.7924118 0.42141867 1.369495 5
1.9758716 0.46561468 1.3403255 1
11.37431 0.51853514 1.3215284 26
-2.8800707 0.76025003 1.2795535 27
-2.4583366 0.69126296 1.2632973 24
-2.2673123 0.67540294 1.2814124 23.214285
-2.1623156 0.64892572 1.3055371 27
1.44907 0.78380895 1.3419302 10
11.45817 0.70157599 1.3266093 35.200001
-2.8708489 0.81911421 1.2920961 22.666666
11.550775 0.89985329 1.3321935 34.666668
11.598506 1.0033808 1.3350947 34
11.650056 1.1132317 1.3382107 33.333332
-4.4592195 1.3205997 1.3791347 26.333334
-4.2855062 1.3462424 1.366986 43.5
-4.0574622 1.3426839 1.3528293 37
-3.9241292 1.313167 1.3440603 28
-3.7087066 1.3515803 1.3493975 18.333334
3.2420774 1.3029327 1.3614806 9
11.72416 1.2787266 1.3427896 32.666668
-5.0784111 1.566522 1.2414484 80.666664
-4.9070125 1.4790077 1.2945173 45
-4.4526248 1.5423636 1.383568 32
-4.2800751 1.4333907 1.3716679 26
-4.0794892 1.5029207 1.3323734 15
-3.8466103 1.5210886 1.348354 17.4
-3.7371492 1.511788 1.3553139 15.416667
-0.29966617 1.5870655 1.2481334 25.5
11.784916 1.401947 1.3464 31
11.846626 1.5329914 1.350145 32.333332
-5.2596483 1.743315 1.2685883 13.571428
-5.1264372 1.6573098 1.2672627 39.599998
-4.2716918 1.6690388 1.3074304 13.333333
-3.8393116 1.6948488 1.360209 12.5
-3.6592946 1.6781515 1.3483548 16.5
-3.5574288 1.720492 1.3474693 12.875
-0.94019222 1.7933799 1.2879878 26
-0.65282017 1.7310686 1.2631259 75.5625
-0.49872684 1.6598707 1.2838633 20.799999
-0.29705501 1.6296934 1.2438818 18.5
11.928489 1.704663 1.3550937 33
-5.2602787 1.896426 1.2257023 4.3333335
-5.1779065 1.9109523 1.2628052 4.181818
-3.9531941 1.8628192 1.364979 22
-3.6456432 1.838623 1.3365016 28
-3.4939849 1.8459218 1.3467128 32
-3.3748388 1.8944238 1.3499689 25
-1.9285738 1.979997 1.3136756 10
-1.2151144 1.9550917 1.2893969 26.5
-1.050751 1.8938193 1.2785252 27
-0.90191555 1.8466316 1.2764682 26.333334
-0.66190624 1.8148854 1.2548163 59
3.6745899 1.8966048 1.2324953 40.5
11.978176 1.8068113 1.3580763 33
12.020495 1.9052932 1.3607622 33.5
-5.2374082 2.0735974 1.2643936 6.8461537
-5.1124654 2.1251965 1.273178 10.017241
-4.9939008 2.1841228 1.2825991 16.833334
-4.5625949 2.1882544 1.3333566 37
-3.7327862 2.1381097 1.3706179 53
-1.9160144 2.105267 1.2931921 17.25
-1.6566262 2.1831632 1.3341315 25
-1.4752187 2.1415358 1.2878811 24.4
-1.3124213 2.0986009 1.2721894 26
3.7011533 2.0920551 1.2075423 16
12.113437 2.0980234 1.3663754 32.333332
-6.1292748 2.2231879 1.2665443 1
-5.3383427 2.2574854 1.3689793 8
-5.0357356 2.2740912 1.2658434 14.392858
-4.9688993 2.3085589 1.2742498 13.102564
-4.4703746 2.3262696 1.2820641 48.25
-4.3259511 2.3544106 1.3247744 56.666668
-4.1317792 2.3653998 1.3759723 41.5
-2.2490075 2.2489352 1.2703598 43
-1.8917199 2.3055534 1.2934036 21
-1.7097439 2.2778649 1.3004022 23.9
-1.525871 2.2140508 1.2794762 25.5
12.186853 2.2546067 1.3708698 32
12.225767 2.3368735 1.3732454 33
-5.0276108 2.4471278 1.243951 4.125
-4.9331756 2.489481 1.2894372 4.75
-4.410233 2.4202836 1.2950593 57.666668
-4.3078728 2.4926639 1.2940537 60.232143
-4.0652614 2.483866 1.3560156 63.833332
-3.97013 2.579237 1.375839 61
-2.1321332 2.4678814 1.290783 23
-1.9973376 2.437865 1.2535127 25
12.279016 2.4562194 1.376585 31.5
-5.2358708 2.6728563 1.2203078 7.6666665
-4.8121204 2.6081257 1.2850347 3.5
-4.741641 2.6999862 1.284158 17.299999
-4.4198189 2.7424169 1.2082149 29
-4.2852464 2.6934628 1.2979324 39.780487
-4.1990647 2.6484344 1.3742967 43
-3.9760075 2.6869705 1.3777176 45.333332
-4.8119926 2.9466267 1.3329954 3
-4.7157898 2.9098074 1.3161271 5.125
-4.5245595 2.9091735 1.291117 2.8
-4.2570367 2.8414798 1.3274972 16.888889
-3.6450887 2.9217041 1.3705759 29.428572
-3.5345716 2.9259036 1.3529967 29.473684
-3.3044024 2.9477625 1.3274366 16
-3.0767119 2.9380987 1.3582706 26.884615
-2.9845841 2.9532266 1.3456663 7
4.0679927 2.9390416 1.2996218 72.599998
-4.667942 3.1096997 1.3044841 7.28125
-4.5522652 3.1676784 1.3055308 12.423077
-4.2980518 3.1436744 1.2925674 67
-4.0889039 3.1644692 1.3214248 30.3125
-3.9178581 3.1141963 1.2523677 40.200001
-3.6875339 3.1107018 1.3431908 35.476189
-3.5121174 3.0809689 1.3274897 26.5
-3.3404946 3.0447564 1.3264382 28
-3.045388 3.0333109 1.3419414 14.2
-2.9881549 3.0415206 1.3326833 7.5
4.1548986 3.1172872 1.2845346 66.384613
-4.6315708 3.2231727 1.2732539 14.090909
-4.5116687 3.2581079 1.2968234 20.216667
-4.3147135 3.2667618 1.2968352 81.050003
-4.1146202 3.2610416 1.306185 47.349998
-3.9276495 3.2816584 1.3193127 35.75
-3.7012458 3.2201266 1.3645101 27.200001
4.2232451 3.2525163 1.2635044 47.599998
-4.2383857 3.4390249 1.2895941 89
-4.1185789 3.4465854 1.3210094 66.800003
-3.6140943 3.5696068 1.2826364 47
-3.4640689 3.5608668 1.2191772 1
-3.6208506 3.6838055 1.3039043 33.5
-3.5433846 3.7362981 1.3302958 16.75
-3.6202347 3.8591659 1.3337251 32.333332
-3.5467596 3.8848939 1.3106543 33.875
-3.4555352 4.1363392 1.3198371 30.166666
1.4646751 4.1783547 1.3821698 31
1.5141299 4.2549591 1.3892882 53
3.1930201 6.4475303 1.3752488 58
3.2438431 6.4087601 1.3746274 38
43.749699 -20.294991 1.4808913 48
43.717724 -20.1099 1.4754786 216
43.75758 -19.958796 1.4709599 157
43.853691 -19.833645 1.4671195 34
43.926655 -19.697729 1.4629841 25
43.983189 -19.554354 1.458642 36
-2.4570513 -10.802983 1.5018327 98
-2.6979148 -10.675247 1.5284967 83.428574
-2.5017736 -10.775585 1.4998724 87.5
-2.3322778 -10.613854 1.4945111 27
-3.4205003 -10.416804 1.5258493 1
-3.2873116 -10.43002 1.5263633 75.5
-3.1153874 -10.476842 1.530028 93.888885
-2.9034657 -10.567677 1.5364048 96.599998
-2.2521291 -10.434755 1.4870299 27
6.5132918 -10.499902 1.4955193 82.166664
6.6497231 -10.511894 1.4993727 69
-2.1775522 -10.274746 1.4803975 24
6.7527699 -10.291078 1.489619 42.25
-2.1057053 -10.121675 1.474067 25
5.1147804 -10.138816 1.4453677 6
5.2142577 -10.159299 1.4497524 7
6.838541 -10.108191 1.4816121 44.333332
-2.0309701 -9.9275627 1.5317687 25.5
-1.963771 -9.8070955 1.4609892 25
4.4254222 -9.8332224 1.4168886 6.3333335
6.9310522 -9.9026775 1.4725918 45
-1.9212531 -9.6856451 1.5404018 26
3.9473908 -9.6061296 1.4111696 11
4.348547 -9.7430162 1.4146838 10.111111
4.4219475 -9.7762241 1.423202 9.5
6.9979734 -9.7596264 1.4664189 42
7.0414662 -9.6740093 1.4628398 39
-1.8350418 -9.5050049 1.5092947 27
3.9371092 -9.5421829 1.407793 18.25
4.1039805 -9.5118418 1.4070483 31.833334
4.2822733 -9.5267458 1.4059219 29.625
4.8801913 -9.4789419 1.407075 3.6666667
7.037714 -9.4782724 1.513587 2
-1.7351021 -9.2974405 1.5175647 27.799999
4.9735823 -9.3380795 1.4032335 2.5
5.0263205 -9.2628088 1.4012572 2
7.1311517 -9.2943335 1.5677179 52
-1.6429682 -9.1114635 1.5350935 32.5
-1.5967497 -9.0242262 1.4288039 31
7.1951146 -9.1693163 1.5627776 63
7.2364216 -9.069788 1.5585318 62.5
-1.6069057 -8.9901495 1.5372801 25
-1.5340654 -8.8898411 1.5367659 30.799999
7.3203092 -8.8946571 1.5515622 65.666664
-1.4524335 -8.7095251 1.5186785 29.75
7.3835363 -8.7528315 1.5458078 66
7.4227238 -8.6704168 1.5425987 67.666664
-1.3575668 -8.5073709 1.5070122 26
7.442235 -8.5649681 1.5372987 21
16.553185 -8.52596 1.5938885 18
-8.416894 -8.2248325 1.5034602 54
-8.3520479 -8.2582998 1.5100083 35.5
-1.2796296 -8.3494234 1.5401663 27.333334
15.989695 -8.3431301 1.5116181 30
16.082603 -8.288167 1.5440712 27.666666
16.235023 -8.3232145 1.5669965 21
-8.3428488 -8.0851622 1.499144 64.800003
3.6308351 -8.0134525 1.5967125 27
15.954613 -8.0331926 1.5352415 28
16.112543 -8.1060591 1.5611713 32.799999
16.252539 -8.0891609 1.5358901 28.666666
-8.4109516 -7.9955564 1.4946244 24
3.6912279 -7.8818636 1.5857131 27.5
15.970057 -7.8664618 1.5589998 34
16.094799 -7.9304061 1.5422812 26.1
16.299234 -7.9413004 1.5242532 25
16.477379 -7.9164276 1.5731884 9
3.7744286 -7.7108402 1.5712914 27.5
16.080036 -7.7540684 1.5376123 29
18.752033 -7.6192942 1.5893828 3
3.864646 -7.5188956 1.5552403 27
18.787785 -7.5840306 1.5904472 20
18.92791 -7.5900764 1.5960045 20
-1.0988148 -7.2863979 1.458292 4.1666665
3.9527884 -7.3354568 1.5398722 28.5
4.0062661 -7.2275629 1.5307965 28
-1.035919 -7.1345887 1.4405985 3.5999999
-0.98326945 -7.0582199 1.4590743 4
0.57036674 -7.0316834 1.5113622 7.6666665
0.70094758 -7.0691833 1.5177423 12.285714
4.0596666 -7.105227 1.5207685 28.333334
8.130374 -7.0881486 1.4856539 36.599998
18.49468 -7.1941628 1.5987468 25
-0.92912012 -6.9174175 1.4651408 3.4545455
0.1287147 -6.8438282 1.5508327 11
0.25009128 -6.8983874 1.4625124 7.8571429
0.79535782 -6.9998956 1.5161171 13
4.1338062 -6.9499712 1.5078552 28.5
17.985685 -6.96418 1.5773649 17
-0.83702272 -6.7016687 1.5091369 2.875
-0.73478007 -6.6298118 1.4824146 17.666666
-0.0179267 -6.7614222 1.5971332 10.5
0.035091523 -6.7786565 1.5082015 12.25
12.607839 -6.6194592 1.4093584 29
12.903938 -6.6767483 1.5556114 33.5
13.168026 -6.7553802 1.553684 26
13.244562 -6.7626061 1.5899066 16
17.395359 -6.7089062 1.5526426 17
-0.81968755 -6.5829144 1.5906012 2
-0.73127723 -6.5162673 1.5308867 11.583333
-0.22072908 -6.406774 1.5577967 57
-0.10512414 -6.4376559 1.5425893 89.478264
0.0030137822 -6.4977422 1.5654229 85
12.14105 -6.4307814 1.5244976 64.400002
12.309175 -6.4461098 1.5601211 37.666668
12.508097 -6.4653053 1.4806745 28
12.681849 -6.4603167 1.4703192 21.6
16.984993 -6.4697328 1.5553005 62.5
17.034662 -6.4906726 1.5501202 61.666668
-0.62405354 -6.3783536 1.5552155 22.25
-0.49543434 -6.2852097 1.5358448 75.114288
-0.29806098 -6.3383255 1.5427871 91.975609
-0.17451984 -6.39047 1.5308378 95.125
11.976531 -6.3258033 1.4163792 33.5
12.093955 -6.2796679 1.449741 27.136364
12.372596 -6.357235 1.5136186 43
12.453926 -6.3463378 1.4679892 35.799999
12.708576 -6.3709216 1.4685533 25
17.002811 -6.3793554 1.5352139 34
10.9657 -6.0349874 1.5884556 31
11.05991 -6.0422506 1.533379 46
11.54162 -6.0285349 1.4972481 63
12.140912 -6.1648064 1.440567 24
-1.8595263 -5.8158913 1.5223429 92.111115
-1.6908569 -5.878952 1.4968876 94.658539
-1.530458 -5.9492598 1.4960114 48.297298
10.383259 -5.8882508 1.5401987 12.166667
10.446155 -5.8906813 1.4898708 13.96
10.725076 -5.8652444 1.5018002 26
10.913315 -5.8856611 1.5266461 26.818182
11.105568 -5.9015212 1.5131835 44.117645
11.28371 -5.9187889 1.4711609 48.57143
11.406698 -5.9596748 1.4923067 14
-2.2685912 -5.6303182 1.5112295 96.117645
-2.1007149 -5.7056084 1.5108196 96.215683
-1.9458041 -5.7714825 1.5107486 96.230766
10.375271 -5.7340293 1.4497749 1
10.487923 -5.7757664 1.5187906 19.5
10.634113 -5.7892065 1.5459948 25
10.908831 -5.7732086 1.5731554 29.799999
11.098169 -5.7906194 1.582015 47
-2.8220024 -5.4043469 1.5303427 96
-2.6769502 -5.4377718 1.5170778 96.307693
-2.5014555 -5.5189753 1.5060699 96.096153
-2.3598938 -5.5801864 1.5028709 96.5
-3.2366328 -5.2203474 1.5928733 95.5
-3.0934529 -5.2507353 1.5124594 92.48333
-2.900353 -5.3291883 1.5171827 94.071426
-2.7632606 -5.3860812 1.519282 96.315788
9.3259916 -5.2575002 1.5440068 6.6666665
9.4965792 -5.3208475 1.566408 1
-3.6414709 -5.0196824 1.5576978 80
-3.4866006 -5.068821 1.5182014 82.176468
-3.2987697 -5.1508479 1.5090778 92.526314
-3.1801741 -5.1920514 1.5018528 96.14286
8.920435 -5.0954046 1.5365744 18
-4.0306678 -4.8129592 1.5197079 95.5
-3.9056301 -4.8614707 1.5130126 95.535713
-3.7100778 -4.9552622 1.5157447 92.033333
-3.5840125 -4.995595 1.4958007 96
8.2991514 -4.8243794 1.5271612 26.5
8.5775909 -4.9083891 1.500841 25
-4.2208409 -4.6876054 1.5106262 13.666667
-4.1203313 -4.7532926 1.5154462 78.68
-1.4469941 -4.6760874 1.5201501 30.09091
-1.3436772 -4.6783695 1.4731424 18.875
7.8987112 -4.6265955 1.4845824 19.25
8.1250715 -4.7150459 1.5025436 25.5
8.316925 -4.7187042 1.4593148 26
7.4774127 -4.4542212 1.4681458 26.5
7.7195029 -4.5085764 1.4888035 25.5
7.9092855 -4.5175271 1.4707694 21.941177
8.0534325 -4.4991856 1.429472 20
6.6833873 -4.277863 1.5694081 11.833333
6.8490443 -4.2701488 1.4211736 8
7.0795674 -4.267364 1.4392141 26.666666
7.2934637 -4.3365393 1.540279 28.428572
7.7510338 -4.3334179 1.4733185 26
7.9241934 -4.3607311 1.4702045 23.777779
8.034646 -4.3291965 1.450626 14.857142
-3.4152029 -4.0122089 1.5156533 42
6.7428675 -4.1270838 1.5599642 21.5
6.8631101 -4.1225576 1.524505 44
7.937273 -4.1740513 1.4328641 7.25
-3.4708743 -3.8704185 1.4312673 37.75
-3.3670068 -3.8930669 1.5053222 59.400002
9.531395 -3.9247522 1.4647689 3.5
9.6649952 -3.8812625 1.4720708 5
-3.4273784 -3.7149551 1.4428686 41.166668
-3.3177664 -3.6833396 1.4736022 52.636364
5.7149658 -3.6232026 1.5889549 23
5.8748932 -3.6669011 1.5323404 21.4
9.397953 -3.633455 1.4158144 17
9.5122633 -3.6807814 1.4663272 17.619047
9.6375656 -3.6755748 1.4776396 12.6
9.8286266 -3.6057549 1.5368922 19
10.788149 -3.658468 1.5951906 7
-3.2818882 -3.4993603 1.5118134 34.789474
-3.1750617 -3.4680462 1.4680165 63.200001
5.1912436 -3.403003 1.5100269 25
5.3440957 -3.4579086 1.5282128 26.75
5.5006309 -3.5285594 1.5156641 17.799999
5.6597729 -3.5946293 1.525739 25.5
9.3431988 -3.4818916 1.5837786 3
9.4824276 -3.5035009 1.4651631 14.333333
9.6617708 -3.4949439 1.4738566 19.5
9.8834085 -3.5563126 1.5142865 11.75
10.485987 -3.5153739 1.5777889 7
-3.232733 -3.3316486 1.5148311 31
-3.136554 -3.2793252 1.4798801 45.07143
4.7161036 -3.2112384 1.5283215 18
4.9250278 -3.3135614 1.5295835 27.888889
5.0782094 -3.3475578 1.5298861 77.833336
9.5567904 -3.306428 1.4799693 18.75
9.6926718 -3.3126516 1.4749105 22.962963
9.8671818 -3.2666125 1.507093 17.25
10.067341 -3.3813498 1.5388263 5
-3.1003442 -3.1077693 1.452217 51.636364
-2.9857798 -3.049757 1.4324266 68
4.3331203 -3.0310023 1.518972 21.833334
4.5191498 -3.1126609 1.5168873 22
4.7046304 -3.1780987 1.4136945 26.666666
9.5232544 -3.0740657 1.4933003 27.75
9.6917496 -3.15062 1.4822769 26.25
9.8141422 -3.172956 1.4177889 26
-3.0376318 -2.9340022 1.4187634 44.25
-2.9314175 -2.8647504 1.4616829 69.238098
3.9531391 -2.8449352 1.4784428 13
4.1008129 -2.9129877 1.5114887 21.125
4.2471323 -2.9878056 1.5076399 21.666666
8.9443712 -2.8355312 1.5142965 59.666668
9.0741091 -2.8611031 1.4809086 17
9.2429361 -2.9230177 1.4425385 17.5
9.4768457 -2.9979715 1.4131391 14
-2.8723514 -2.7069788 1.4711009 61.222221
-2.7836385 -2.6088169 1.5715892 39
8.9667902 -2.707902 1.5718564 68.272728
9.0329256 -2.7076566 1.5389851 50.285713
-2.8211572 -2.5137556 1.5226243 81
-2.7767878 -2.476727 1.4817922 71.111115
8.7880583 -2.5844932 1.4365531 1
8.9444847 -2.4902177 1.5310526 32.764706
9.0352974 -2.5350649 1.5672249 25.75
-2.7173316 -2.3007832 1.5632243 80.173912
8.976202 -2.3663754 1.5617808 28
-2.634521 -2.1289856 1.5593679 85
-2.5768173 -2.0545988 1.5194893 83.26667
2.3130903 -2.0648813 1.4790547 26.5
2.4588902 -2.1308286 1.46877 27.5
7.1527333 -2.0277493 1.5178888 25
7.2631092 -2.0457921 1.5285265 22.5
-2.6040518 -1.9981614 1.5515389 58
-2.5065687 -1.9038429 1.5233353 76.916664
2.0345244 -1.9292014 1.4989371 9.5
6.7708206 -1.827518 1.4709885 31
6.9023285 -1.8578485 1.4812862 27.75
7.0834713 -1.9240704 1.4770153 24.692308
-2.4370258 -1.7684435 1.4893986 83.5
-2.3944945 -1.7152324 1.5345949 38
-0.98235863 -1.6227885 1.4822861 7.6666665
6.3789539 -1.6088723 1.4353909 30
6.5056319 -1.6525126 1.4499241 30.142857
6.7135835 -1.7481819 1.4758737 28.799999
6.8151755 -1.7453455 1.5936069 25
-1.0775938 -1.4247365 1.552495 15
-0.95229989 -1.4944464 1.4775701 11.1
6.1558003 -1.4550326 1.4601067 60.5
6.2872295 -1.549715 1.4501559 30
6.4672947 -1.5912694 1.5546538 25
-1.4237245 -1.2114018 1.5494 5.3333335
-1.2836564 -1.2555436 1.5218533 5.3809524
-1.1077837 -1.3360931 1.5195025 6.8571429
5.9132977 -1.2807409 1.5679952 11.909091
6.0846291 -1.3469158 1.5339241 30.5
-2.0781887 -1.0175359 1.5659078 81.599998
-1.4757391 -1.1383743 1.5073292 5.5
-1.3692147 -1.1770941 1.5214454 4.3333335
5.7524376 -1.0684788 1.5583776 4.6666665
5.8667402 -1.139032 1.585445 4.4000001
6.0053444 -1.1905082 1.5858058 1
-2.0374346 -0.90609717 1.5493375 96
-1.989442 -0.82143819 1.5383624 95.75
-1.6663637 -0.98314834 1.5977834 1
4.7913017 -0.85025334 1.4790518 44
4.9609065 -0.8947264 1.5244106 33.25
5.0433569 -0.91569269 1.559659 6
5.634356 -0.98222756 1.5450621 5
-1.9559968 -0.74048346 1.5414864 88.826088
-1.7189028 -0.64736784 1.5119874 95.599998
-1.6483992 -0.50005907 1.5077362 96.074074
-1.5569133 -0.44403142 1.5781264 94.5
-1.6082606 -0.37732345 1.4669319 96
-1.536258 -0.30392748 1.5268605 82.65625
-1.8700383 -0.0674247 1.5210376 30.4
-1.714644 -0.15633446 1.4742543 28
3.0375924 -0.0019257069 1.5083485 96
3.2809618 -0.052429318 1.4940602 25
3.4071956 -0.11242127 1.4849637 26
-2.2850156 0.10595053 1.4454287 26.5
-2.044935 0.044118069 1.5216783 34.599998
-1.8970225 0.11926647 1.5281618 37.200001
-1.7809269 0.09295392 1.5467247 35.5
2.0883317 0.10346899 1.4918569 21.4
2.4018488 0.19026804 1.4851702 25
2.9162521 0.075410999 1.5181299 46.333332
3.0855401 0.025122007 1.507391 50
-2.0580046 0.29770958 1.4456389 22
-1.8639507 0.29744428 1.527177 37.5
-1.7560453 0.32134613 1.5178156 33
2.070406 0.25168088 1.5398844 26.714285
2.290159 0.29224518 1.5164222 26.444445
-1.8863984 0.48350063 1.5159198 25.4375
-1.7943325 0.45709491 1.5738742 32
1.9254133 0.4191494 1.5841275 33
2.0470159 0.44585288 1.5466337 26.5
2.2273321 0.43201637 1.5062125 23
11.383313 0.56050992 1.5095243 29.666666
-2.1615677 0.6369158 1.4406852 26
11.452861 0.71848691 1.5193787 34.25
-3.9763374 0.99079967 1.5084219 1
11.548415 0.920995 1.5324543 33.25
-3.9914451 1.1073641 1.5218079 12.5
-3.6975861 1.1974821 1.4190062 16
-3.4370749 1.0843285 1.5960741 31.666666
-3.3188982 1.0930332 1.586503 33.666668
11.639796 1.1153685 1.5450352 33.333332
-3.9058821 1.3193728 1.489934 11
-3.7156975 1.3196341 1.4800457 11.25
-3.5083644 1.2401009 1.506348 13
-3.3724566 1.218205 1.5924261 31
3.2770348 1.3415323 1.5749249 29.333334
11.7257 1.2920899 1.5566813 33
-4.8901849 1.4636759 1.4822414 45.400002
-4.2781534 1.5512819 1.5397296 8.6999998
-4.1470728 1.55312 1.5023856 19.333334
-3.9742866 1.4835218 1.4437225 27
-3.4975204 1.5546318 1.5163841 28.6
-0.333529 1.5841545 1.4275175 25
-0.16666889 1.5877326 1.4439214 24
0.0093455315 1.5124407 1.4308946 9
3.311347 1.446061 1.580345 15
11.78776 1.4183054 1.5650595 33
11.829947 1.5107858 1.5710162 33.5
-5.2062893 1.720896 1.4220536 4.5
-5.1688514 1.7534376 1.4558412 5.5
-4.5435143 1.6155325 1.4039319 22
-4.236515 1.6419271 1.5700896 17.4
-4.1143827 1.689851 1.4994557 22.1
-3.9071538 1.7102736 1.4688017 22.428572
-3.6576588 1.7594903 1.4996879 21.4
-3.4998431 1.7680736 1.4442918 23.333334
-0.81310081 1.7627223 1.4004173 23
-0.65911132 1.7316016 1.4668643 73.090912
-0.51377517 1.7017118 1.4581759 55.25
-0.2949129 1.6214119 1.469559 21.4
11.906287 1.6747011 1.5816873 33.666668
-5.1714582 1.9998529 1.4392252 3
-4.1159377 1.8035516 1.4623344 29
-3.9225571 1.8400995 1.4541436 28.333334
-3.6448455 1.8879046 1.5349098 12.090909
-3.5927627 1.8519248 1.5583091 8
-3.3558881 1.8262682 1.4619284 21.714285
-1.0881294 1.8949643 1.4795035 22.666666
-0.96136248 1.8498197 1.5056734 18.25
-0.66459513 1.8152528 1.4810131 67.5
3.5941427 1.9017589 1.5815449 76
3.6844025 1.9301902 1.5032018 89.307693
11.983348 1.843559 1.5926127 35
-5.20434 2.0714369 1.4431512 4.5
-5.0756164 2.1227362 1.444792 8
-4.9634085 2.1608942 1.455757 14.142858
-1.6715937 2.1893868 1.5621595 26
-1.4941969 2.1648176 1.5052973 24.142857
-1.3114097 2.0992956 1.4964126 24.666666
3.7215366 2.0576339 1.5406268 72.5
-5.0355606 2.2943249 1.4316092 9.6428576
-4.9603028 2.2961881 1.4485894 10.608696
-4.4718618 2.3284433 1.4073695 42.142857
-4.3226185 2.3561034 1.4423707 55.799999
-1.8944849 2.3480341 1.5269561 24.200001
-1.7168947 2.2872429 1.5208671 24.4
-1.5402569 2.2187164 1.4537445 24.666666
-5.0064635 2.4354205 1.4173127 2
-4.9042978 2.488987 1.4656484 2.4000001
-4.4912462 2.4246306 1.4599988 40
-4.2904639 2.4886699 1.435333 58.851852
-2.1355529 2.4448712 1.4932215 21.4
-1.9830377 2.4280977 1.4995221 24
-5.2591462 2.7440608 1.4432502 7
-4.8176079 2.6124928 1.476415 5
-4.7275991 2.6933868 1.4729941 11
-4.4866395 2.6723995 1.5295092 10
-4.3053961 2.7071104 1.4456221 24.555555
-4.8320251 2.9630654 1.4509445 2.3333333
-4.735045 2.9443173 1.5027448 4.3125
-4.266551 2.8271432 1.5052032 5.9444447
-4.1884933 2.8309803 1.46646 4.75
-3.8489966 2.9873796 1.510828 27.5
-3.6910348 2.9419408 1.514533 28.285715
-3.4966009 2.9266965 1.4800817 28.666666
-3.2846262 2.954262 1.5157661 24.666666
-3.0656905 2.9234145 1.5198221 14.628572
4.0678267 2.9290202 1.4847438 67
-4.7023792 3.0759654 1.4873816 5.1111112
-4.5460992 3.1623967 1.4946018 9.90625
-4.3297424 3.1798193 1.4740773 77.916664
-4.073699 3.1414621 1.4892547 24
-3.8982456 3.1100624 1.4674287 35.555557
-3.707911 3.08377 1.4948162 33.578949
-3.5196655 3.0949068 1.5116844 33.81818
-3.3463061 3.0412045 1.5343772 31.833334
-3.0476291 3.0243003 1.5417621 14
-2.9885979 3.0434334 1.5175551 13.666667
4.1518984 3.1030295 1.4738317 68
-4.6211095 3.2458832 1.4535046 17
-4.5147166 3.2551899 1.4874221 22.152174
-4.3084669 3.2546415 1.4798801 81.540543
-4.1128874 3.2568619 1.5128815 37
-3.904269 3.2538865 1.4472839 29.571428
-3.6682906 3.2070107 1.4130141 27
4.1860151 3.2003298 1.5057704 57
4.2405753 3.2838395 1.464256 54.888889
-4.2553196 3.4134936 1.4775963 70.5
-4.0304594 3.450115 1.4515371 28
-3.6436496 3.5529575 1.4439446 31.25
-3.4736385 3.5419664 1.4208069 1
4.3054886 3.412245 1.4584315 24
-5.4658365 3.738857 1.5763173 6
-3.6387756 3.6716449 1.4817688 25.375
-3.5625012 3.7398295 1.4765592 36.111111
-3.5539565 3.8957717 1.4624819 34.75
-3.474452 4.1033854 1.4979973 32.833332
-3.4517589 4.2809005 1.5286231 37
-6.9860015 4.7371268 1.4405379 3
-7.338728 4.901618 1.4606872 3
-7.836803 5.0771484 1.487553 8.333333
-8.5767183 5.4294305 1.5301633 3
-8.9952917 5.6502705 1.5548919 3
3.1828227 6.4483585 1.4559972 35
3.2517498 6.5059414 1.4622927 10.5
3.1372757 6.7763457 1.5088131 15.142858
3.2327228 6.6891594 1.4704583 25.25
3.0474143 6.8141041 1.5355349 14
3.3680222 -15.617994 1.7268863 1
3.4978588 -15.675735 1.7314255 4
3.6566384 -15.712924 1.7352595 2.6666667
2.9257019 -15.425191 1.673198 4.4000001
3.0881801 -15.49628 1.6691787 2.4000001
3.2610486 -15.565198 1.6751814 4.5
2.8773487 -15.399873 1.6125114 7
4.5283923 -15.08602 1.6751125 4
34.07056 -15.031962 1.649404 101
4.5016365 -14.980023 1.669142 3.75
4.6506653 -14.8637 1.666566 2.5
34.097626 -14.901929 1.6489241 255
4.7154036 -14.719332 1.6608043 1
34.175133 -14.723172 1.6489241 94.5
4.7783637 -14.579597 1.6553073 2
4.8306417 -14.42724 1.6810122 3
33.980316 -14.428753 1.6437757 19
4.8898163 -14.304516 1.6751941 3
21.456789 -11.040236 1.7585557 44
-2.4744687 -10.805647 1.7022824 57
21.921412 -10.837329 1.7462068 24
22.102234 -10.82917 1.753072 29
22.224911 -10.812107 1.7639623 23.5
-2.8309073 -10.630507 1.6454203 4
-2.7148821 -10.687375 1.6486844 67
-2.4857135 -10.768474 1.6761906 90.5
-2.3547661 -10.695397 1.6995955 39.666668
21.943632 -10.750834 1.7590342 32.5
22.259951 -10.73772 1.7667571 13.666667
-2.2842896 -10.511847 1.6719326 27.666666
6.3214159 -10.432593 1.7575454 95.36364
6.5054712 -10.508669 1.7690359 95.153847
6.6399989 -10.496255 1.7717338 64.166664
22.212221 -10.598336 1.7680106 9
-2.2457788 -10.371088 1.6272397 23
-2.1667104 -10.266347 1.6627462 26.6
5.5781784 -10.322727 1.7296206 3.3333333
5.673315 -10.30671 1.7322388 23.818182
5.8924961 -10.230221 1.7316779 75
6.1299229 -10.340399 1.7442943 77.5
6.2328019 -10.387691 1.7506576 95.666664
6.4496984 -10.394067 1.7576032 84
6.7283154 -10.29256 1.7572533 43.75
-2.0797997 -10.064792 1.6423234 27.666666
5.1333966 -10.117824 1.7058859 6.9000001
5.2144656 -10.144889 1.712608 5
5.7798653 -10.172692 1.7215109 92.666664
5.8194618 -10.184416 1.7274758 95
6.7866044 -10.143576 1.7496639 43
6.8301344 -10.076399 1.7418314 45.200001
-2.0113358 -9.9516449 1.6523497 29
-1.9522433 -9.8244171 1.6439035 29.5
4.435853 -9.8315773 1.686811 3
6.9121008 -9.9001732 1.7295871 44.666668
-1.8940511 -9.6969042 1.635452 30
3.963073 -9.6175089 1.6533903 4.5999999
4.0769868 -9.6577301 1.6578845 4.25
4.3266969 -9.7488937 1.6689063 7.1666665
4.4125419 -9.7872715 1.673945 9
6.9725323 -9.7817249 1.7221192 41.5
7.0221128 -9.7023335 1.7102081 27.5
-1.81918 -9.5203438 1.6643531 30.75
-1.7645123 -9.4298496 1.6306895 32
3.3785725 -9.4324512 1.6353064 3
3.4194481 -9.4661884 1.6376027 2.5
3.9104309 -9.5197725 1.652161 12.75
-1.7314196 -9.3270941 1.6687965 31.666666
3.7219062 -9.2447968 1.6216248 76
3.8662221 -9.2902641 1.635691 88.333336
-1.6351137 -9.1135406 1.689482 32
7.2650604 -9.0799599 1.6316882 33.333332
-1.5403079 -8.9104757 1.7006793 30.333334
7.3346095 -8.8934956 1.692489 68.583336
-1.45421 -8.6604748 1.7665355 25.5
7.375577 -8.7566528 1.7841237 71
7.436583 -8.6762066 1.6757435 70.300003
19.777729 -8.7421255 1.7993598 1
-1.406417 -8.5262375 1.7874085 24
-1.3737667 -8.5218163 1.7216952 25.5
7.4984126 -8.4973764 1.7664776 72.833336
16.64254 -8.4315662 1.662282 12
-1.2763951 -8.303381 1.7982768 27
3.5220828 -8.263176 1.6174531 19
7.5697002 -8.3372869 1.7555699 73.5
7.6290388 -8.2274361 1.7614284 75.5
16.183224 -8.2652597 1.6396301 24
16.305387 -8.2521448 1.6746091 6.3333335
19.693697 -8.2555342 1.652705 10.5
19.813522 -8.2395334 1.6369877 23.5
3.589982 -8.1016369 1.6041048 28
7.6961536 -8.0977383 1.7667586 60
16.118618 -8.1069489 1.6828527 30
16.283756 -8.0898628 1.6821826 25.888889
19.511126 -8.0554829 1.6441922 24
19.674641 -8.0604687 1.6521387 14.8
-9.0278654 -7.8250761 1.611896 88
-8.8862362 -7.8899403 1.6115918 89.75
-8.7502089 -7.9555445 1.6115178 81.5
3.7033668 -7.8557549 1.794065 30
7.7598019 -7.9241033 1.7398517 52.625
7.8379002 -7.9461226 1.7797102 1
16.091543 -7.8809729 1.6611172 31.428572
16.275049 -7.9009242 1.6617219 30.5
16.403889 -7.9847317 1.6507266 36
19.772079 -7.9802823 1.6812122 16
-9.1256571 -7.7828245 1.6122683 78
3.7599545 -7.7341471 1.7793206 28.5
3.8207197 -7.6093254 1.7640611 27
7.6888671 -7.7923908 1.7570889 1
16.120461 -7.7158389 1.6638498 25.444445
16.337185 -7.7592545 1.6443691 25.5
16.5063 -7.7729349 1.6560305 7
19.128437 -7.6029296 1.725017 19
3.8773108 -7.4920816 1.7497753 28
18.682293 -7.51055 1.6081691 15.25
19.044313 -7.4434881 1.6218445 17
-1.0999986 -7.272789 1.681595 4.125
3.9540312 -7.3225021 1.7294317 28.333334
18.469128 -7.2103014 1.6626637 27.5
18.66674 -7.3618846 1.6390247 30
-1.0330242 -7.1164155 1.6558412 3.4285715
-0.98401648 -7.060204 1.7008061 4
0.51864761 -7.0408416 1.6735485 8.5882349
0.69994628 -7.0873842 1.6948978 11.32
0.88985234 -7.0699539 1.7105744 61.909092
4.0509143 -7.1195073 1.7048655 28.333334
8.1599197 -7.0992699 1.7641952 60.5
18.419378 -7.1150389 1.6269956 25
-0.93207645 -6.9085608 1.6648072 3.5555556
0.11632715 -6.83812 1.6506324 11.413794
0.29728359 -6.9285288 1.6553155 10.394737
0.43006766 -6.984797 1.7089138 10.333333
1.0443799 -6.8908238 1.6808769 27.833334
1.3326577 -6.8303084 1.6838623 32.5
1.4692373 -6.9010167 1.6961755 28.75
4.1271067 -6.9607615 1.6856811 27.5
12.987047 -6.8562474 1.6175287 40
13.099777 -6.823071 1.6331205 38
13.316705 -6.8442802 1.6391395 29.333334
13.471707 -6.8741641 1.6598555 32.333332
-0.84635192 -6.7299094 1.6505982 3.5
-0.71914989 -6.6316261 1.670577 18.333334
-0.033109836 -6.7691455 1.6222277 13
0.026916552 -6.7915177 1.6531147 12.6
1.1391975 -6.7453842 1.6683403 30.6
1.2271991 -6.7794065 1.6748557 32
12.44584 -6.6194601 1.702261 38
12.737621 -6.6358924 1.7508901 31
13.097054 -6.7587676 1.6958904 37.166668
13.254472 -6.7198448 1.6314358 24
16.994944 -6.6244512 1.6360549 37
-0.81382167 -6.574142 1.7992136 2
-0.72219872 -6.5193434 1.7039293 11
-0.24702933 -6.4282675 1.7844836 5
-0.11023893 -6.4348192 1.7291863 75.608696
12.349849 -6.4943881 1.7518467 30.5
12.467377 -6.4984221 1.7252353 29.75
12.682285 -6.4777927 1.7334117 15
16.986336 -6.5200901 1.6330034 93
17.024475 -6.432076 1.6317716 48
-0.62358671 -6.3793035 1.762033 21.833334
-0.4948695 -6.2883463 1.7494658 75.027779
-0.29969051 -6.3376536 1.7558628 93.684212
-0.16700469 -6.3858891 1.7106843 95.5
12.358012 -6.3809295 1.7300113 26.666666
12.435431 -6.3397737 1.7027537 19.4
10.916441 -6.0642972 1.7360697 56
11.079717 -6.0294733 1.670784 59
11.57017 -6.1058154 1.6797043 4.6666665
11.682227 -6.1662607 1.6357412 4
-1.8590065 -5.8187256 1.721983 94.800003
-1.6921555 -5.8855205 1.7078115 95.95652
-1.5267384 -5.956986 1.7079405 59.696968
10.357745 -5.8909416 1.721258 15.894737
10.449811 -5.8887358 1.6944778 17.741936
10.710149 -5.8780122 1.6941377 29
10.902116 -5.8787494 1.6979107 34.486488
11.080108 -5.8903275 1.6998016 42.541668
11.273124 -5.8936276 1.7403932 1.5
-2.2699656 -5.6310282 1.7118824 96.256409
