# .PCD v0.7 - Point Cloud Data file format
VERSION 0.7
FIELDS x y z
SIZE 4 4 4
TYPE F F F
COUNT 1 1 1
WIDTH 1492
HEIGHT 1
VIEWPOINT 0 0 0 1 0 0 0
POINTS 1492
DATA ascii
-0.50145251 -4.6201077 -0.33874744
-0.30033588 -4.5209627 -0.30751908
0.31794527 -4.6332054 -0.33921298
0.54672384 -4.5214667 -0.30840009
1.2841797 -4.5437603 -0.25293711
-3.6738122 -4.0765257 -0.22814997
-3.4095757 -4.2606678 -0.21534546
-3.1758478 -4.3829947 -0.33773401
-0.9669838 -4.189723 -0.3689149
-0.60270566 -4.238368 -0.3724435
-0.19888946 -4.1950583 -0.35528189
0.12988308 -4.1126957 -0.31065598
0.61934 -4.2212811 -0.31222117
0.83971477 -4.0865655 -0.29813945
1.4836432 -4.1928015 -0.23767684
6.3292451 -4.1795173 -0.27271634
-4.4154463 -3.61007 -0.13351372
-4.1994228 -3.7208397 -0.19528392
-3.8332591 -3.876967 -0.20069699
-1.6721752 -3.8592865 -0.39790288
-1.4523607 -3.7070496 -0.3929047
-0.8326301 -3.9554274 -0.39153659
-0.67571467 -3.7252092 -0.38729534
-0.025240963 -3.9815681 -0.35837731
0.19715638 -3.798279 -0.34251308
0.69123673 -3.8085251 -0.30837333
0.91569072 -3.8063571 -0.29620638
1.4158111 -3.7975497 -0.26350957
1.6861669 -3.7831526 -0.22048663
2.3387923 -3.6877868 -0.18822667
3.3603058 -3.7576325 -0.093098342
-4.8796382 -3.2559934 -0.19216678
-4.6077986 -3.4379628 -0.19962405
-4.365653 -3.576875 -0.28157625
-1.2527925 -3.5533326 -0.38781479
-1.0299296 -3.3570492 -0.38128266
-0.47453633 -3.5062258 -0.37877873
-0.30388936 -3.3086536 -0.36936471
0.60462981 -3.4007683 -0.30575472
0.96886748 -3.4396527 -0.29132056
1.2621822 -3.5315108 -0.29668227
1.845227 -3.3972354 -0.20491785
2.3819098 -3.4399059 -0.18499342
2.4040623 -3.2556386 -0.18239847
3.3975923 -3.4171426 -0.090887755
-5.3620143 -2.9186041 -0.19893694
-5.0771379 -3.1127472 -0.22480844
-1.6411194 -3.0740359 -0.39899141
-1.4013592 -2.9251966 -0.39537612
-0.88147914 -3.1229866 -0.37701595
-0.59603614 -3.0124388 -0.3758865
-0.13388652 -3.0137782 -0.36129782
0.03868062 -2.8460765 -0.35067055
0.78759557 -3.1817524 -0.28948033
0.99188143 -2.989207 -0.27782279
1.9572458 -3.1047478 -0.19379826
2.0329537 -2.9000599 -0.18649125
2.4293134 -3.007884 -0.17896265
3.4564552 -3.0057268 -0.085771166
-6.4722776 -2.4695864 -0.39247596
-6.0785036 -2.4477735 -0.21516994
-5.7947478 -2.6075671 -0.21375421
-5.5492415 -2.7655005 -0.23836789
-1.2314975 -2.7179704 -0.39582571
-0.96324104 -2.6398878 -0.39589337
-0.60612172 -2.5164077 -0.38737389
0.20897461 -2.6278977 -0.33658195
0.48584688 -2.4787734 -0.31150195
1.1455268 -2.6937208 -0.26537338
1.2555668 -2.4951191 -0.2556169
2.1501222 -2.5969179 -0.17684925
2.4770427 -2.6043382 -0.17334068
3.4761956 -2.6150489 -0.076992147
-6.9094453 -2.0935543 -0.3741256
-6.5414486 -2.1077583 -0.20408882
-6.2462029 -2.2898831 -0.20456856
-5.9473004 -2.3686726 -0.11826873
-1.2749768 -2.3531482 -0.38388938
-1.0077699 -2.1736946 -0.3828077
-0.59426653 -2.1704001 -0.38165554
-0.21085556 -2.2443812 -0.36193916
0.1923888 -2.1234636 -0.3347123
0.58296877 -2.2341771 -0.30543992
0.88296115 -2.0845194 -0.2789551
1.3992869 -2.190165 -0.24026085
2.2764771 -2.1935594 -0.16490443
2.4585223 -2.371376 -0.16999599
-7.2625446 -1.6506602 -0.23272446
-6.9989557 -1.7772936 -0.21202154
-6.7278595 -1.9495256 -0.22394314
-0.8048749 -1.8174579 -0.39921784
-0.60305279 -1.8501765 -0.38818839
-0.21687245 -1.8779918 -0.35843155
0.16146617 -1.8044112 -0.32838979
0.58483219 -1.8222945 -0.29653576
1.0859126 -1.8461132 -0.26380825
1.3838202 -1.8224908 -0.24239667
1.6657114 -1.7601646 -0.21815352
2.3509045 -1.9015398 -0.15687214
2.4208941 -1.8324741 -0.15718941
-7.7221832 -1.2874681 -0.21241201
-7.4239798 -1.4757746 -0.21807939
-7.0941305 -1.5229952 -0.12346391
-0.57614738 -1.574919 -0.38848293
0.30421147 -1.4681402 -0.31573573
0.72832626 -1.4345074 -0.27988794
0.82197785 -1.3839889 -0.27832544
1.315938 -1.487406 -0.24411035
1.7893424 -1.4412082 -0.20589502
-8.4277878 -0.81631058 -0.19539081
-8.1925669 -0.95888853 -0.21188201
-7.8920321 -1.1218894 -0.20569931
-7.533277 -1.1421143 -0.089773424
5.9246593 -0.82152772 -0.2217976
6.0198669 -0.93246293 -0.22398277
-8.9075184 -0.47364587 -0.19902371
-8.6108856 -0.6641677 -0.21752577
-8.259841 -0.66058028 -0.15206428
-7.9800563 -0.77367181 -0.075212508
5.9720254 -0.75022364 -0.21722904
6.1469688 -0.53117383 -0.22846213
-9.6266146 -0.0086165713 -0.22569697
-9.3924341 -0.14317438 -0.18800296
-9.1019497 -0.33590704 -0.20847
-8.6312675 -0.27059805 -0.063804768
1.3047677 -0.11511193 -0.387445
2.9919651 -0.05586696 -0.33911213
6.2354245 -0.20777841 -0.1853108
6.4112039 -0.043512374 -0.091548793
-10.075752 0.34180921 -0.20634434
-9.7969227 0.14643478 -0.2071491
-9.5776644 0.069448993 -0.17969216
1.3615775 0.23013291 -0.37380412
3.1232347 0.16609232 -0.33863917
3.2409208 0.33579132 -0.33907479
6.3325171 0.048448481 -0.1972789
6.4305897 0.041478962 -0.18130492
-10.875676 0.78407121 -0.21669279
-10.554467 0.68277866 -0.2160102
-10.268731 0.51124275 -0.21152648
-9.796339 0.55986112 -0.050088108
0.1040934 0.74024427 -0.38425323
0.54801542 0.62199116 -0.36142612
1.3802145 0.59851259 -0.35795179
2.6235278 0.70899868 -0.27845541
3.3512778 0.53683907 -0.34245628
4.7900062 0.46447593 -0.37042525
4.8966899 0.64253831 -0.36447173
-11.260923 1.1567789 -0.19627842
-10.997374 1.0052278 -0.22007558
-10.689347 0.88684648 -0.20141594
-10.255567 0.92440253 -0.04130796
0.069406971 1.0293416 -0.37946764
0.55039966 1.0014696 -0.35300481
1.326401 1.0120198 -0.33134401
1.6557602 1.0365332 -0.38856176
2.6895859 1.0036707 -0.27607301
2.8292804 1.1275361 -0.27614024
3.6977894 1.174796 -0.34245554
-11.710262 1.4894439 -0.20616859
-11.429873 1.3086917 -0.22565505
-11.004765 1.352854 -0.056215797
-10.704984 1.2779324 -0.03298663
-0.044914525 1.4705939 -0.38235641
0.070073068 1.3593043 -0.35852429
0.56458521 1.4210614 -0.32935491
1.1884851 1.581184 -0.23579183
1.2894883 1.4190524 -0.30905399
1.7546855 1.4224058 -0.26849005
2.3849931 1.5673237 -0.14061947
2.633168 1.3355597 -0.23028477
2.9539573 1.4043953 -0.277365
3.801486 1.3899142 -0.34157166
-12.846914 1.7154386 -0.25588927
-12.476409 1.8867524 -0.20944986
-12.12114 1.7122978 -0.10470653
-11.855142 1.6593548 -0.19826084
-11.402496 1.848919 -0.021463476
-10.979485 1.8576169 -0.2228421
-0.81224245 1.9703213 -0.38838279
-0.66828215 1.9466726 -0.38006318
-0.16142145 1.8175675 -0.35864681
0.22898538 1.8101971 -0.31989458
0.48575133 1.7773031 -0.3174614
1.0352436 1.8024849 -0.24906957
1.3677659 1.8179919 -0.26655224
1.7462689 1.7260208 -0.30487478
2.3142998 1.7947305 -0.14411813
2.6568682 1.8123372 -0.25011867
3.0175941 1.621924 -0.27706566
3.9517374 1.6390688 -0.33794969
4.010025 1.7074082 -0.33881083
-12.800934 2.3325031 -0.19886412
-12.566772 2.2301805 -0.15914162
-12.277141 2.1455863 -0.13342619
-11.81815 2.1788633 -0.015239195
-10.853762 2.087997 -0.1950808
-10.70494 2.2690818 -0.23241176
-1.3377322 2.2517431 -0.38904634
-0.99743617 2.0994918 -0.36716625
-0.49711296 2.3048177 -0.36795098
-0.25284982 2.1665547 -0.34376687
0.24921761 2.19279 -0.32983708
0.55996716 2.1895971 -0.30594265
1.0489091 2.0925114 -0.27430597
1.3592197 2.0946553 -0.2215919
2.2003613 2.1957765 -0.15298374
2.6935401 2.1659372 -0.24878152
3.3911073 2.3585041 -0.058387358
-12.462308 2.5089922 -0.15295088
-12.310524 2.6095829 -0.12070438
-10.808021 2.7440801 -0.013674408
-10.533873 2.5622256 -0.21485379
-10.340443 2.6295316 -0.23550548
-0.95141196 2.6318793 -0.36924228
-0.70175076 2.4586535 -0.36069471
-0.07749185 2.712559 -0.30459169
0.20262671 2.5851257 -0.3442995
0.43661433 2.4280121 -0.29291138
1.0137763 2.7384715 -0.25103199
1.433594 2.7118573 -0.20590241
1.8005183 2.7385864 -0.16114929
2.1320801 2.5679581 -0.15915106
2.6009672 2.4696198 -0.20146903
3.3493981 2.5940707 -0.059769019
-12.558672 2.8718085 -0.0062444629
-12.288293 3.0117517 -0.043204676
-11.743856 2.9946175 -0.17865095
-11.355091 3.1482036 -0.14691144
-10.986049 3.0662832 -0.21450944
-10.655904 2.9317074 -0.21251634
-10.324403 3.0762575 -0.018792175
-1.3738052 2.9157259 -0.38787636
-0.97520149 3.0282691 -0.38574296
-0.56626451 3.1007695 -0.3666884
-0.2401709 2.9688148 -0.34024909
0.17998651 2.8441198 -0.39525631
0.74348283 3.1214495 -0.26464763
1.1132469 2.9743521 -0.2293876
1.2901084 2.929949 -0.17668557
1.9410166 2.9253275 -0.17250973
3.2959647 2.9651649 -0.066465035
-12.145399 3.280458 -0.0052975491
-11.620047 3.2242255 -0.13154233
-11.370015 3.4155774 -0.19025318
-11.045826 3.3829696 -0.29798993
-10.746525 3.2556696 -0.36333254
-0.85764575 3.4058342 -0.36845291
-0.58824313 3.3999062 -0.34416521
-0.3098079 3.3449235 -0.39030698
0.34397829 3.5440457 -0.29978263
0.61189437 3.3702698 -0.26614463
0.95053661 3.4635749 -0.33224332
1.3914011 3.3495126 -0.21132933
3.2385921 3.2489614 -0.074133165
-11.262628 3.6695251 -0.18111598
-11.097189 3.8402803 -0.20913413
-1.2650713 3.9358802 -0.370049
-1.0303624 3.7352266 -0.35542107
-0.48684588 3.6185839 -0.39928499
-0.089781597 3.9204314 -0.33697483
0.19760475 3.7724445 -0.30444017
0.48044616 3.7665181 -0.25830728
0.84601945 3.8611031 -0.33789453
1.4751854 3.6153939 -0.20967108
-11.26428 4.2847524 -0.18946685
-11.070768 4.1270061 -0.17973796
-1.6542534 4.2628946 -0.3964037
-1.4683677 4.1141949 -0.38412461
-0.52780533 4.2878652 -0.37016097
-0.29327214 4.1309643 -0.35579193
0.27482358 4.0902348 -0.2668919
1.2733139 4.2774477 -0.22063255
-11.233361 4.4537287 -0.11707745
-11.068961 4.6069231 -0.18112995
-10.701705 4.7228813 -0.35933223
-0.87918961 4.5595226 -0.39427149
-0.72490185 4.4588151 -0.38321581
-0.13663629 4.7027974 -0.2856392
0.047668356 4.4699645 -0.27866837
1.0444 4.7401962 -0.24045368
-10.95107 4.985713 -0.15383896
-10.609543 4.984056 -0.33514577
-10.283033 5.1345901 -0.37918684
-0.44797146 5.0173416 -0.18462288
-0.33029941 4.9893212 -0.17538771
0.61403263 5.1182542 -0.27605879
0.82233202 5.1513324 -0.25895047
-11.229487 5.4000015 -0.0082073705
-10.960747 5.3779473 -0.14676698
-10.669541 5.4462495 -0.28736231
-10.141781 5.3210301 -0.35507435
-9.9242458 5.5127668 -0.37136456
-0.4615424 5.2455502 -0.18895642
-0.32962811 5.2251134 -0.2946822
0.3853817 5.2896404 -0.36249438
0.58720434 5.2371025 -0.31849495
1.4605502 5.5638041 -0.13824442
1.6726452 5.5837369 -0.036098782
-10.903735 5.7492404 -0.13483961
-10.629272 5.7922602 -0.20219618
-10.250639 5.8328633 -0.29423496
-9.9476738 5.6392431 -0.36823073
0.35270071 5.8584247 -0.24007757
0.50343269 5.8802676 -0.19980161
1.110687 5.7750607 -0.16037112
1.4117998 5.7940083 -0.16755387
1.6477741 5.6907673 -0.15453206
-10.596004 6.2104454 -0.096924521
-10.095453 6.1617656 -0.2666156
-9.9420242 6.2937012 -0.3408336
-3.6913493 6.3094893 -0.19700126
-3.4401155 6.1998692 -0.20553921
-3.145067 6.3302021 -0.18393485
0.39230457 6.1066341 -0.14547239
0.55026776 6.0513387 -0.20948054
1.1278785 6.0620346 -0.19844289
1.2578002 6.0758672 -0.25092486
-10.437113 6.4476318 -0.093011692
-10.274925 6.6332569 -0.11599402
-9.8834667 6.5428667 -0.27310148
-3.7430596 6.5042405 -0.1857599
-3.3151574 6.5102472 -0.19260021
-3.1052289 6.5202694 -0.22126821
-10.111522 6.9803357 -0.12165748
-9.8201714 7.0138345 -0.27186173
-9.5913887 7.1915984 -0.33013177
-3.5036273 6.8844695 -0.32587039
11.458179 7.0850573 -0.012345701
-10.024921 7.2253237 -0.11288647
-9.7665701 7.377223 -0.1516214
-9.5550976 7.2886286 -0.32681695
11.030106 7.4692659 -0.0093406402
11.32053 7.2761898 -0.016447766
-9.6671562 7.695507 -0.19626644
-9.5205116 7.8877425 -0.23701277
9.9560261 7.9849763 -0.087583944
10.132797 7.8649631 -0.095464408
10.712313 7.6910214 -0.0023997214
10.830433 7.6084867 -0.0044421181
-9.3292322 8.1796055 -0.211604
-9.1768942 8.3644161 -0.23701122
9.4818439 8.3329029 -0.11029975
9.7131042 8.1730728 -0.14361148
-9.2341805 8.4565992 -0.21968362
-9.026866 8.5977011 -0.21358943
9.0332766 8.656847 -0.11890388
9.3056889 8.4729176 -0.15485835
-8.8492565 8.8551178 -0.23399481
-8.6852064 9.0486507 -0.22004431
8.3295164 9.1446791 -0.10016024
8.5942221 8.9754572 -0.11792278
8.8651543 8.8338776 -0.32818314
-8.4939127 9.3365717 -0.23621958
-8.330081 9.5199385 -0.18786085
7.8222408 9.5098591 -0.23856123
8.1505032 9.2823391 -0.068347171
-8.1671057 9.7905998 -0.21042283
-7.9176736 9.8636284 -0.024750859
7.1258845 9.9650249 -0.32617784
7.3814173 9.8028402 -0.30700964
7.6486535 9.6368742 -0.2210438
-8.0558491 10.041231 -0.20062599
-7.8585625 10.077474 -0.14012767
-7.5688024 10.283671 -0.03416691
6.227746 10.285931 -0.38510498
6.6562095 10.294876 -0.32298052
6.9570198 10.120996 -0.32054687
5.5604391 10.779722 -0.33476436
5.8743258 10.694458 -0.3443774
6.1950712 10.623073 -0.34770983
6.4790263 10.452691 -0.33076617
5.4818864 11.105321 -0.31791008
5.7796135 10.923661 -0.33379689
6.0294762 10.826815 -0.28686035
4.7791686 11.586978 -0.31076744
5.0140495 11.443539 -0.30581573
5.295403 11.270226 -0.31221321
4.3126063 11.939235 -0.27202746
4.5902681 11.752295 -0.2718749
4.849412 11.640081 -0.27327085
3.556998 12.381337 -0.25041699
3.8159213 12.273405 -0.23939571
4.1258235 12.083894 -0.24743184
3.0980573 12.721861 -0.19060016
3.3813388 12.547294 -0.21995918
3.6481247 12.42717 -0.23678277
2.3337436 13.171625 -0.16740437
2.6188102 13.079709 -0.18519922
2.9268651 12.910417 -0.19481209
1.9365914 13.552075 -0.14159413
2.173955 13.373696 -0.18480934
2.5238423 13.250403 -0.21478002
1.1652731 13.953768 -0.16491967
1.456599 13.889195 -0.13204214
1.7682325 13.725667 -0.16944471
2.0287519 13.705655 -0.25379595
0.70647037 14.343604 -0.10765146
1.0097257 14.210376 -0.11760169
1.3143234 14.09293 -0.1639107
1.6447831 14.038715 -0.24344452
-0.0078433752 14.786659 -0.18396583
0.26028115 14.714791 -0.1097688
0.58430058 14.543982 -0.12397734
0.96849167 14.509123 -0.19636734
-0.4626388 15.145136 -0.28123349
-0.18494907 15.00905 -0.12756692
0.12678967 14.886652 -0.13701802
0.48293698 14.864189 -0.15339412
-0.91889691 15.510379 -0.25711802
-0.59372407 15.324782 -0.11178505
-0.38139129 15.218071 -0.073136218
-1.6390982 15.980075 -0.33103573
-1.385911 15.849973 -0.19854468
-1.0928174 15.668454 -0.15111151
-2.117938 16.321352 -0.31619158
-1.7930655 16.12525 -0.2536737
-1.5502687 16.029751 -0.015503258
-2.8265066 16.76989 -0.26549661
-2.5794749 16.639614 -0.30390859
-2.3042035 16.464785 -0.32324111
-3.3176925 17.124189 -0.27283269
-3.0195189 16.939463 -0.2921873
-2.7699325 16.811497 -0.32685208
-4.0415792 17.576235 -0.22371992
-3.7919474 17.445786 -0.2627117
-3.5015297 17.267609 -0.28401887
-4.5158019 17.917679 -0.2341779
-4.2254796 17.741356 -0.2564452
-3.976819 17.611832 -0.2928406
-5.2326221 18.363544 -0.18887189
-4.9733715 18.234776 -0.23262028
-4.6864281 18.073172 -0.26138985
-5.6887393 18.702085 -0.20473288
-5.4240289 18.547705 -0.23045005
-5.1738091 18.421453 -0.27038985
-6.1538291 19.104418 -0.25252587
-5.8500218 18.893202 -0.25768295
-6.8477783 19.577099 -0.24199325
-6.6022229 19.408686 -0.24556184
-6.3619757 19.248035 -0.24917533
-6.958694 19.651777 -0.24046284
3.5481961 -10.538367 0.25759754
3.6232412 -10.590361 0.2593585
2.9345472 -10.000713 0.23966166
2.6414981 -9.7448339 0.19250171
2.8339214 -9.900362 0.2127507
2.2285779 -9.4031067 0.1752508
2.4127822 -9.5492277 0.17918921
3.0437503 -9.2779083 0.19757786
3.2865684 -9.4434834 0.14797865
1.6389302 -8.8845062 0.16087931
2.3920031 -8.8306551 0.37304038
2.6328466 -8.9763155 0.23475349
2.8886783 -9.1429377 0.16302609
1.4163393 -8.6707163 0.1553124
1.9177942 -8.4455891 0.16447444
2.1625204 -8.61133 0.16888149
1.8356758 -8.2966185 0.09538459
0.69688034 -7.6912127 0.12876102
0.84596395 -7.8140864 0.1316328
1.373776 -7.6421561 0.22365393
0.21712084 -7.301518 0.12020303
0.60339969 -7.420516 0.18432085
1.0168698 -7.392364 0.22732085
1.2747442 -7.5547075 0.20103055
2.3977849 -7.3451066 0.15009788
2.4856269 -7.286581 0.14841241
0.27232379 -6.9053721 0.32753792
0.58789164 -7.0705643 0.2375187
2.641402 -6.9448552 0.1231324
3.077605 -7.0029721 0.32028148
3.2929626 -6.9991183 0.39170837
-0.85458314 -6.4327416 0.13709772
-0.53426141 -6.5956326 0.16642715
-0.21599455 -6.5418863 0.18762755
0.13401084 -6.6375895 0.18501191
2.7173429 -6.6721606 0.11429297
2.9251471 -6.5652618 0.0742433
3.3256083 -6.5881014 0.30826142
4.7057085 -6.4457331 0.17473468
-1.3065295 -6.0805979 0.13163212
-0.91370755 -6.0976963 0.19635072
-0.60979372 -6.247098 0.18338238
-0.35571873 -6.3732743 0.091908723
0.094074182 -6.3594275 0.065827079
3.0795956 -6.2524118 0.071767807
3.4850781 -6.1358891 0.23869516
3.6689143 -6.0965238 0.27952367
4.7496514 -6.3445301 0.19728327
4.9015722 -6.1529922 0.14230482
-1.3745636 -5.7263622 0.17978796
-1.0829992 -5.9201665 0.17547159
3.0899541 -5.8271165 0.035883266
3.3085175 -5.8832097 0.094646357
5.1053329 -5.8376064 0.20265329
5.3129888 -5.6758657 0.18558873
5.6755829 -5.6687536 0.12819727
-2.0867584 -5.2636285 0.18891744
-1.8099124 -5.4061847 0.18288758
-1.5629487 -5.5727363 0.14026922
2.9438581 -5.5861769 0.0047488846
5.270494 -5.5881219 0.24946852
5.8350058 -5.4216924 0.15492336
6.0419655 -5.2393255 0.22031745
-2.8390937 -4.8382449 0.10900554
-2.5511191 -4.9048676 0.1897942
-2.2461987 -5.0937777 0.19861673
5.9406366 -5.1800733 0.011958759
6.1667905 -5.0243306 0.23341821
-3.2353327 -4.4299507 0.18043917
-3.0099082 -4.5681496 0.18183716
-2.7279797 -4.7509937 0.19396839
5.982429 -4.5086479 0.30405587
6.0590949 -4.4611955 0.28131273
-3.7137704 -4.0777006 0.19001137
-3.417659 -4.2744946 0.1812813
6.2006192 -4.2624879 0.33622354
-4.4182687 -3.6122751 0.17933303
-4.2045665 -3.7415035 0.18734612
-3.8968575 -3.9334488 0.17885007
-5.230835 -3.2277527 0.29677451
-4.8947597 -3.2721241 0.18883902
-4.6062412 -3.4579761 0.19005243
-4.3936009 -3.5930107 0.17546295
-5.7347374 -2.8862565 0.33979091
-5.3743024 -2.9359589 0.17872216
-5.0801797 -3.1188693 0.17200425
-6.4498644 -2.4436195 0.17730813
-6.1321554 -2.4851882 0.22644003
-5.7988276 -2.6277578 0.16468281
-5.5582194 -2.7684524 0.14219709
-6.8871346 -2.0657911 0.26030827
-6.5682597 -2.1456833 0.19107759
-6.2559133 -2.2894111 0.15234976
-5.9538116 -2.363847 0.22167303
-7.6549931 -1.6765008 0.24656969
-7.3349414 -1.7122911 0.23698147
-7.0151939 -1.8172404 0.16713275
-6.7388587 -1.9544172 0.12909609
-7.7292562 -1.2870269 0.20401645
-7.4599447 -1.4676509 0.17043489
-7.0855432 -1.5185941 0.26333371
-8.4274435 -0.81854206 0.21166775
-8.1893873 -0.96896255 0.19655202
-7.8924999 -1.1249151 0.21081114
-7.5831475 -1.1214586 0.32400796
-8.9121275 -0.47700885 0.20518377
-8.6144238 -0.67283708 0.18921213
-8.2516632 -0.67693758 0.29912266
-7.9834681 -0.78323668 0.36505714
6.19803 -0.51321268 0.28422108
-9.7955437 -0.061060615 0.32881802
-9.3851309 -0.15207672 0.21069263
-9.107399 -0.34020221 0.19753882
6.2880826 -0.21057148 0.27881902
6.4281802 -0.044577949 0.25079113
-10.476464 0.37228519 0.22322711
-10.147328 0.24483383 0.22737442
-9.8262548 0.10969334 0.15999259
-9.5947037 0.0094535351 0.1864883
6.3512197 0.049368698 0.26180196
6.4520721 0.17143504 0.24676043
-14.668675 0.73815531 0.27346981
-10.920138 0.71844304 0.24140471
-10.578446 0.63201755 0.15714778
-10.290302 0.49350092 0.10358669
-14.544408 0.91507328 0.26206946
-11.620286 1.1916703 0.29931027
-11.366144 1.0628829 0.27291539
-11.027099 0.96498758 0.18225332
-10.743309 0.84029287 0.084894359
-13.00508 1.5554196 0.3353194
-12.065792 1.5228822 0.25665015
-11.747331 1.3466048 0.23760022
-11.425426 1.2667344 0.12325839
-13.848538 1.7797862 0.30012003
-12.494017 1.851694 0.28039724
-12.256056 1.6872911 0.28112814
-11.931582 1.6562487 0.13530092
-11.040375 1.8330816 0.04619744
-12.873698 2.2992268 0.33605126
-12.593263 2.1752226 0.27723721
-10.86207 2.0790086 0.035144042
-10.72144 2.2800407 0.026794301
-13.225634 2.61745 0.28531182
-13.066318 2.5977075 0.34335831
-12.490211 2.5127153 0.29871222
-12.342067 2.6476398 0.27408636
-11.836685 2.7506766 0.29617196
-10.53604 2.6450362 0.01873553
1.4715261 2.7538569 0.20445441
1.6145073 2.6842012 0.0034658089
-12.96276 2.9722424 0.2992382
-12.754676 3.1123857 0.38587105
-11.725701 2.9809358 0.24869291
-11.56591 3.1536837 0.24331184
-10.87056 2.9628742 0.059274364
-10.705422 2.8872776 0.03177847
1.1708578 2.9950085 0.23944885
1.3058977 2.9275625 0.2121993
1.7089841 2.9157095 0.30553341
-12.824701 3.2608624 0.23386812
-12.59936 3.4203835 0.32934815
-11.614169 3.2222703 0.22497408
-11.41497 3.4092772 0.21554077
-10.992553 3.4261744 0.039344631
-10.742085 3.2481411 0.010460685
1.388029 3.3410971 0.21355972
-12.485108 3.7182152 0.2282729
-12.272814 3.8279276 0.34087586
-11.270104 3.6720037 0.18311255
-11.102524 3.8582129 0.19719219
1.4680146 3.6143296 0.26629284
-12.122839 4.1339908 0.26905927
-11.844954 4.2459888 0.35369653
-11.278815 4.2959991 0.22666831
-11.048758 4.1216621 0.17771792
-12.016836 4.4199271 0.19890779
-11.784137 4.5902638 0.25619888
-11.328207 4.5221086 0.31865856
-11.076385 4.6176186 0.21695548
-11.676577 4.8799825 0.19825113
-11.350612 5.0465488 0.30616435
-10.968713 4.9818668 0.18732983
-10.771892 5.1692653 0.015205808
-0.48585302 5.0575042 0.20840858
-0.32419091 4.9942408 0.18672985
-11.258689 5.3530612 0.32338908
-11.085972 5.4577932 0.16589017
-10.700193 5.380578 0.016587283
-0.49620399 5.2644944 0.16563641
-0.29771835 5.2315912 0.16014931
1.3597789 5.5562449 0.22925663
1.7418154 5.5849586 0.27679414
-10.95127 5.7945271 0.20289363
-10.771544 5.9441838 0.071480274
0.35545126 5.9047647 0.17664266
0.50895762 5.878931 0.22387992
1.1111934 5.8008518 0.13247372
1.3793012 5.750391 0.13940214
1.6475968 5.6794081 0.21093625
-10.842538 6.0349622 0.2788645
-10.646759 6.2029986 0.17939386
-3.6974275 6.3085818 0.21708077
-3.4442739 6.2029123 0.21354805
-3.1431267 6.3230453 0.30007699
0.37545633 6.0861101 0.20990564
0.49998119 6.0545478 0.13142389
-10.469956 6.5160675 0.22860135
-10.323614 6.6814995 0.1765929
-3.7358818 6.5166111 0.22009546
-3.2849295 6.4837742 0.28819793
-3.124747 6.5247297 0.22766772
-10.157244 7.0037475 0.20037021
-9.9917746 7.1938224 0.01939293
-3.5094883 6.8760223 0.19837353
11.174781 7.1691151 0.1854735
11.296195 7.0812769 0.19884065
-10.034265 7.2228689 0.12649605
-9.86973 7.4075284 0.1906243
10.689275 7.512619 0.15370864
10.971396 7.3055282 0.15051013
-9.6734762 7.7020283 0.20665531
-9.5226212 7.895637 0.20117742
9.9948483 7.9808955 0.26706898
10.231319 7.8670402 0.11931941
10.508793 7.7169156 0.077521972
-9.3322258 8.1839504 0.21241155
-9.1688128 8.3543873 0.15783459
9.5162249 8.3425016 0.20449585
9.7990894 8.1869297 0.10028905
10.122791 8.0652485 0.012736228
-9.2326527 8.4601507 0.17304866
-9.0318375 8.5995369 0.2144475
-8.7782822 8.7541456 0.018992461
8.7821417 8.7981148 0.015026122
9.0303736 8.6794872 0.11964078
9.3713722 8.5077686 0.097016901
-8.8533421 8.8616838 0.20507732
-8.6873112 9.049345 0.194929
8.3241911 9.1484489 0.14533724
8.5953016 8.9726839 0.1476167
8.8793678 8.837491 0.11780481
-8.5033789 9.34694 0.17972371
-8.3446493 9.5256596 0.15586843
7.8062587 9.4918032 0.087826349
8.1072187 9.290184 0.14497511
-8.1942196 9.7910194 0.18184538
7.1392269 9.9593687 0.11999565
7.395443 9.7969027 0.10165432
7.6988997 9.6660872 0.071280099
-8.0658865 10.038898 0.21912624
-7.9730973 10.063361 0.25575647
6.6675072 10.296648 0.1223235
6.9594259 10.113625 0.10784038
5.9613624 10.769351 0.12088402
6.1898842 10.633488 0.11679421
6.4835925 10.445435 0.11500097
5.4990354 11.117235 0.13822401
5.7783208 10.921758 0.12882775
6.0279942 10.821129 0.11502719
4.7667227 11.59442 0.209736
5.0170469 11.455228 0.15874025
5.2936125 11.267745 0.14258435
4.3039398 11.942911 0.20262893
4.6114292 11.739409 0.18702427
4.8256083 11.619617 0.17064959
3.5847065 12.38087 0.21834414
3.8121412 12.271652 0.22128423
4.1080289 12.080185 0.21121618
3.1155262 12.742618 0.24728093
3.3902853 12.561859 0.22610068
3.6347563 12.42625 0.20942143
2.3659563 13.186201 0.26033223
2.6047618 13.073571 0.27497527
2.9208224 12.885641 0.25933695
1.935558 13.556536 0.31263193
2.1963685 13.372673 0.277926
2.4178257 13.216555 0.28001562
1.1729671 13.982598 0.32797346
1.4362634 13.893654 0.3253271
1.7581141 13.704352 0.29989338
0.7111277 14.333344 0.33203587
1.0016296 14.189514 0.33735961
1.2749909 14.038908 0.3145763
0.2525284 14.691713 0.24350509
0.55913591 14.519038 0.26999083
0.8393082 14.400355 0.28372511
-0.4547264 15.157307 0.048801411
-0.17978804 14.980968 0.22039713
0.12673369 14.876312 0.28911942
-0.93635237 15.499448 0.053680971
-0.64230102 15.361908 0.048305713
-1.3517851 15.840447 0.05640943
-1.054345 15.734568 0.086094514
-0.74860144 15.620642 0.1051838
-2.0935006 16.341274 0.057262413
-1.795109 16.188576 0.059357658
-1.4327383 16.140182 0.14728829
-2.5760169 16.673935 0.071591236
-2.2233257 16.561657 0.11093061
-1.8817894 16.492655 0.17498964
-3.3232 17.145357 0.13225906
-2.9996417 16.963943 0.074824527
-2.6037076 16.882893 0.14735246
-2.33004 16.827675 0.20147859
-4.0475106 17.54949 0.2606304
-3.7758539 17.449352 0.17032053
-3.4640088 17.285101 0.1048155
-4.4343314 17.919752 0.16194113
-4.2194576 17.787619 0.15210521
-3.9222627 17.654982 0.087954544
-4.9304318 18.305586 0.12231869
-4.6083918 18.099787 0.11254173
-5.371655 18.637365 0.14094786
-5.1367507 18.456926 0.13091926
-6.0128899 19.135208 0.16818291
-5.7849731 18.975815 0.1592389
-5.5629034 18.803768 0.14982694
5.764523 -11.326736 0.76222068
4.0996981 -10.082354 0.55185091
3.4724643 -9.6680403 0.6082406
3.9013739 -9.8504982 0.53677905
4.0576177 -9.9809484 0.54621977
3.0474281 -9.3085785 0.59195018
3.2740178 -9.4857826 0.5695039
2.3357441 -8.8339529 0.50285774
2.557919 -8.9392319 0.59715468
2.8500211 -9.1411705 0.69302875
1.2395824 -8.5623016 0.79755753
1.9049928 -8.4549656 0.63189805
2.1926472 -8.6610804 0.60955685
2.4137723 -8.7888756 0.46460557
1.7242384 -8.303853 0.60246074
0.68261355 -7.6850386 0.70279205
0.85466337 -7.8314843 0.71971774
1.3372127 -7.6842122 0.56230426
0.2262513 -7.3138595 0.66070312
0.59131527 -7.4198461 0.63468599
1.0002649 -7.4100256 0.58429903
1.2707111 -7.5576587 0.6008755
3.4802809 -7.3200812 0.60140342
-0.40811378 -6.8022728 0.61908102
-0.23115101 -6.9440985 0.63142306
0.2575548 -6.9420757 0.58175385
0.57598329 -7.066885 0.57429534
1.5236104 -6.8128834 0.6619302
3.4745598 -7.0258355 0.49187657
3.6891749 -7.0315604 0.62480509
-0.87183726 -6.4439139 0.59583789
-0.52634364 -6.5673285 0.64539015
-0.209025 -6.5415254 0.6181134
0.15064368 -6.6367927 0.67751735
0.47327042 -6.740078 0.74598938
1.487265 -6.7875977 0.65844131
3.4690852 -6.6674647 0.50220072
4.6838832 -6.4655619 0.58251435
-1.3228579 -6.0900598 0.56277007
-0.9292354 -6.1008515 0.61860728
-0.62750828 -6.2619514 0.62335813
-0.34894258 -6.3734193 0.6137597
3.0611119 -6.3684978 0.68185949
4.7715931 -6.3662171 0.60773605
4.9066133 -6.1644597 0.56813663
-1.3870611 -5.7347274 0.58048886
-1.1042794 -5.9263191 0.58658433
2.9900763 -5.6276574 0.75737762
3.3568041 -5.9729452 0.66258401
5.1048393 -5.8612943 0.59615868
5.4163651 -5.7036614 0.60337585
5.6528668 -5.67313 0.57461405
-2.0958295 -5.2723494 0.60351723
-1.811016 -5.4253945 0.59396249
-1.5670705 -5.5811772 0.52598304
2.9096191 -5.5693007 0.73649871
3.3725247 -5.5352058 0.75929445
5.2638049 -5.5864234 0.62528592
5.8382039 -5.417522 0.57700831
6.0205817 -5.231607 0.56902409
-2.8361979 -4.8491817 0.46568021
-2.5615535 -4.9151921 0.59844393
-2.2580433 -5.1047769 0.62627792
6.1492548 -5.0420461 0.5685845
-3.2410574 -4.4319887 0.58034408
-3.0126486 -4.5758452 0.59385586
-2.7358587 -4.7567635 0.61100805
5.9818907 -4.4825077 0.66591239
6.0345511 -4.4960575 0.46970657
-3.729224 -4.0794082 0.58665055
-3.4224963 -4.2810931 0.58837897
6.3108244 -4.2029428 0.76554418
6.401958 -4.0770793 0.77191937
-4.4159298 -3.6110225 0.60480022
-4.2157602 -3.7445328 0.59309298
-3.9160759 -3.9456828 0.58719814
-5.2424502 -3.2307484 0.61169523
-5.0021181 -3.3907433 0.58802396
-4.584671 -3.5154905 0.58905542
-4.3855643 -3.5992358 0.43104684
-6.4041381 -2.8055813 0.52687627
-6.2458172 -2.8066559 0.57138288
-5.773488 -2.9092045 0.60089648
-5.4078927 -3.0972097 0.56889349
-5.1126895 -3.102746 0.41014832
-6.8172774 -2.4064233 0.50050545
-6.4700971 -2.4586167 0.62311196
-6.1917 -2.574338 0.61093104
-5.9353452 -2.7523217 0.57514197
-7.2407002 -2.0442662 0.51741797
-6.9293666 -2.09742 0.5957759
-6.6163545 -2.2740381 0.59759343
-6.3136191 -2.3088834 0.57472932
-7.6227279 -1.7429109 0.60627186
-7.3834691 -1.787787 0.59602129
-7.1205854 -1.9391633 0.5877499
12.716657 -1.6855522 0.78021014
-7.7353067 -1.2908833 0.61063474
-7.5330305 -1.4586267 0.58979744
12.791159 -1.5650141 0.78666371
12.812525 -1.5128403 0.78878897
-8.4292059 -0.81971538 0.60875034
-8.1981201 -0.97028196 0.60080457
-7.8973117 -1.1290656 0.63191092
-7.5920811 -1.1112744 0.74794531
5.936799 -0.86284065 0.6290803
-8.9204321 -0.48206973 0.60231936
-8.6168394 -0.67802167 0.589535
-8.3724127 -0.78248191 0.53490895
5.9635849 -0.75949389 0.63356918
6.1371441 -0.53108746 0.65475678
-15.303701 -0.071205795 0.64627242
-9.8295412 -0.052697126 0.61454451
-9.376256 -0.16730793 0.61669892
-9.1155701 -0.34615672 0.60949481
-8.6382885 -0.28065225 0.41887972
6.2470937 -0.20344618 0.69051242
6.4300208 -0.027872339 0.58023691
-15.259838 0.0004696846 0.64518589
-15.030131 0.2697784 0.78923327
-10.470063 0.38116854 0.5470255
-10.199654 0.19457641 0.57107174
-9.9218607 0.035880167 0.5972321
-9.5766954 0.12023512 0.50826806
6.3428473 0.048205376 0.78372049
6.4398193 0.028822249 0.59739149
-14.866323 0.51311195 0.78406072
-14.647719 0.6995402 0.54593742
-10.919848 0.6831485 0.59617662
-10.639253 0.53379542 0.59512633
-10.272001 0.5702436 0.57206666
-9.940239 0.45287356 0.51376826
-14.556085 0.91049004 0.63661104
-14.36615 1.1539776 0.70726085
-11.627184 1.1868944 0.60975975
-11.398135 1.0467396 0.60734546
-11.074424 0.87626904 0.62150782
-10.752202 0.85332644 0.65978593
-14.170693 1.4013743 0.69673026
-13.973404 1.5681396 0.73219413
-12.091974 1.5113759 0.63922685
-11.741662 1.3081342 0.6008442
-11.409313 1.4085332 0.62916869
-11.065985 1.3265345 0.61831415
-14.024763 1.6252279 0.60650414
-13.872623 1.6709239 0.60727978
-12.478312 1.8532174 0.61346251
-12.266509 1.6784778 0.66197854
-11.689094 1.827435 0.67963004
-11.53114 1.6833972 0.66233343
-12.920131 2.3119931 0.66516823
-12.606655 2.1434648 0.61767858
-13.244462 2.6077485 0.67458874
-13.1099 2.6110172 0.65488809
-12.614178 2.5926652 0.65751588
-12.358882 2.5313165 0.75149733
1.4551485 2.7581298 0.6155324
-13.286329 3.1188033 0.74265414
-12.978339 2.9953086 0.6910516
-12.772803 3.0553718 0.7015965
1.169107 2.9866512 0.62125576
1.2975218 2.9236288 0.60890132
1.6923782 2.9367237 0.54557663
-13.265551 3.2876706 0.74928272
-12.923747 3.3350201 0.70961428
-12.662499 3.4319432 0.68327862
1.3760726 3.3282671 0.61932784
-12.965371 3.6539314 0.72873712
-12.484207 3.7266655 0.69150859
-12.319794 3.9002907 0.68115962
1.4685688 3.6064739 0.58640587
-12.145181 4.1755581 0.68424231
-11.96338 4.3501782 0.61378771
-12.039465 4.4520078 0.68636262
-11.822544 4.6082802 0.67165333
-11.581538 4.782939 0.49513176
-11.675992 4.9260445 0.70417094
-11.445544 5.0403423 0.64966112
-0.51351118 5.0926461 0.59373415
-0.31633145 5.0567422 0.56206733
-11.313767 5.3721061 0.63188112
-11.163095 5.5459142 0.56849366
-0.54805529 5.2909126 0.54995245
-0.37341759 5.2739229 0.54410332
1.351239 5.5853772 0.50378478
-11.233336 5.6582861 0.64966214
-11.007037 5.8047581 0.60516363
0.31583732 5.8898621 0.58686495
0.51561391 5.8647766 0.57868224
1.1690354 5.7095327 0.46903694
1.2745821 5.6427102 0.49272579
-10.848577 6.0578027 0.65765029
-10.689107 6.2366915 0.61434692
-3.7021568 6.3080783 0.59456062
-3.4427414 6.2085991 0.59855038
-3.1868396 6.2385445 0.7985059
0.34813255 6.101686 0.58557451
0.48084491 6.0355158 0.58198816
-10.499629 6.5439115 0.65561813
-10.355088 6.726171 0.6279577
-3.6967885 6.6375308 0.43994901
-3.2438364 6.4600954 0.61588579
-3.1348174 6.5401301 0.61010134
-10.405254 6.8152604 0.76803923
-10.181692 7.0085106 0.63643706
-3.5125864 6.8562083 0.47167531
11.37371 7.1286426 0.51639771
-10.038779 7.2345467 0.62767589
-9.8742704 7.4179544 0.61068767
10.668682 7.5136118 0.64730692
11.00568 7.4368901 0.52310586
11.328942 7.3043489 0.50486237
-9.6788092 7.7132177 0.60469371
-9.5282393 7.9036632 0.59704262
9.9752913 7.9843564 0.57516128
10.195601 7.877964 0.57290828
10.56647 7.7399168 0.54666156
10.847064 7.6290708 0.50687385
-9.3374643 8.1910181 0.62063783
-9.1754179 8.3743677 0.63217211
9.4781904 8.3245974 0.54896712
9.7932749 8.180254 0.5530256
10.137123 8.0831633 0.51205188
-9.2363977 8.4444265 0.54805958
-9.045886 8.6013336 0.62926376
-8.7844963 8.7919273 0.79219645
8.7840233 8.7959919 0.47153071
9.0177393 8.6643763 0.53868032
9.3421316 8.5051374 0.52833068
9.6213398 8.4181252 0.5128113
-8.8614779 8.8693895 0.62019646
-8.7027254 9.0628843 0.60861456
7.7204719 9.1459436 0.4880546
8.3031225 9.1286392 0.54255152
8.5957012 8.9392252 0.54028594
8.9237394 8.8654461 0.51911116
-8.512125 9.3490257 0.55914539
-8.3373566 9.5247221 0.54000103
7.154521 9.570363 0.50823617
7.4002523 9.3855639 0.49928263
7.8057342 9.4740324 0.55639476
8.1191082 9.2681952 0.55242509
8.6924171 9.3365536 0.57009172
-8.1970034 9.7963448 0.56761038
-7.9418154 9.8741455 0.61480838
6.7076063 9.9157505 0.52612162
7.0924644 9.9005575 0.54735518
7.3897185 9.7843218 0.56478328
7.7277503 9.6683016 0.5624643
-8.073102 10.044914 0.63333082
-7.7258096 10.154803 0.78704613
6.2344666 10.280478 0.54607832
6.6419673 10.273642 0.57489282
6.9479661 10.097343 0.57272482
5.5796337 10.782373 0.57536501
5.8875623 10.703526 0.57190961
6.181891 10.620004 0.57240379
6.4617257 10.436987 0.58694214
5.4756947 11.119833 0.59655112
5.7651448 10.922197 0.58152795
4.7657175 11.597767 0.64759153
5.0308399 11.434052 0.60399413
5.2825933 11.254463 0.60148841
4.3063288 11.938634 0.64293122
4.5935278 11.746822 0.62963957
4.8246183 11.621521 0.63464689
3.5692155 12.37846 0.6638692
3.8168621 12.265544 0.6582914
4.1183038 12.081422 0.65273446
3.1094878 12.715218 0.69571263
3.3813524 12.549244 0.66897255
3.617466 12.42896 0.65849513
2.3598115 13.149562 0.74117327
2.6200125 13.068739 0.7204746
2.9322696 12.890015 0.70719904
1.9267875 13.562502 0.72756016
2.1982434 13.384974 0.71508455
2.4483924 13.227982 0.6730653
1.4498118 13.899046 0.72086108
1.7675986 13.730067 0.73157185
2.0255311 13.731701 0.73438901
0.75309902 14.365579 0.54653174
1.0066549 14.208072 0.67737788
1.3204086 14.107443 0.72227997
1.637465 14.039303 0.75814456
0.65636814 14.45266 0.62652105
-0.28329825 15.167091 0.40207639
-0.83320761 15.557062 0.42598563
-0.5914734 15.391948 0.41713557
-0.3585372 15.242457 0.40772438
-0.98589963 15.683677 0.43580058
-2.847589 16.774601 0.66374737
-2.5889654 16.655777 0.57039207
-2.3176045 16.527409 0.52329528
-3.3028328 17.129948 0.62252694
-3.007997 16.952669 0.57834989
-2.780345 16.819513 0.53988177
-4.0472803 17.567972 0.74811691
-3.7765839 17.450285 0.64472258
-3.4721029 17.272644 0.59583932
-4.4018397 17.79472 0.77282465
-4.1791077 17.725155 0.6664713
-3.9766724 17.627913 0.60634488
3.6849067 -10.857781 1.1191813
4.0821438 -11.010728 1.1465918
5.3430271 -10.919533 0.94264317
3.5982392 -10.778337 1.1088482
4.792408 -10.562285 0.89836395
4.1934805 -10.26658 0.91823864
2.6507287 -9.7544556 0.94373691
2.8813484 -9.9325104 0.9667207
3.5179284 -9.6572123 1.0770334
3.6359334 -9.7014933 0.89422435
2.263392 -9.4329653 0.90346611
2.4506793 -9.5864344 0.92266172
3.0417473 -9.3043003 1.0667101
3.2895393 -9.4874048 0.98499674
1.5715292 -8.8413792 0.83079112
1.6766763 -8.9278316 0.84125292
2.3619232 -8.8304987 1.0357659
2.5861511 -8.9750566 0.99260306
2.8510084 -9.1625185 1.0993651
1.3903815 -8.6896267 0.81264579
1.8930196 -8.4830246 1.0426625
2.1618505 -8.675374 1.0355557
1.5926117 -8.2290545 1.0117214
1.7343234 -8.3387556 0.98308092
3.3611083 -8.0684109 0.84531289
1.1949301 -7.6050129 1.0148273
1.3260927 -7.6598644 0.99753356
3.5222371 -7.8839927 0.8356179
3.6240199 -7.6770458 0.82184941
4.1291723 -7.7859497 1.0079628
0.76215798 -7.2607446 1.0360262
0.99404508 -7.4198136 0.9941076
1.2339542 -7.5668859 0.97948813
3.6358259 -7.578198 0.81374776
4.1282253 -7.5251465 0.98274034
-0.028898716 -6.8086348 1.117581
0.072872594 -6.8940177 1.1346546
0.57510084 -6.8598604 1.0012392
2.9185429 -6.9910121 1.1895623
4.7664094 -6.852427 1.0216634
-0.88470483 -6.4575334 1.0643283
-0.50734931 -6.5532255 1.0541028
-0.20664863 -6.5804567 0.98927885
0.17747457 -6.5722127 0.96725982
0.465258 -6.749887 0.95726591
2.359632 -6.6150966 0.80103666
2.4557033 -6.6692629 0.84698135
4.6570845 -6.5435486 0.96404696
-1.3359259 -6.0932903 1.0015986
-0.9435519 -6.1030259 1.0317274
-0.64587235 -6.2655034 1.0138615
-0.36947867 -6.3685575 0.97411394
3.959527 -6.365694 1.1826327
4.7465615 -6.3083124 0.94068778
4.885941 -6.1153994 0.94163847
-1.6135817 -5.6102676 1.0324097
-1.3900428 -5.7420211 0.98985732
-1.1112459 -5.9324265 1.0049328
3.4608593 -5.7528296 0.91093564
3.6923628 -5.7430797 0.83456868
5.0843825 -5.7891607 0.94837964
5.5041165 -5.7101612 0.96857959
5.61763 -5.6261954 0.95633954
-2.4110162 -5.2114697 0.85475779
-2.1029155 -5.2806826 0.9898389
-1.8047649 -5.4465179 0.9844979
-1.567252 -5.5783644 0.92854303
3.4331899 -5.5994015 0.80220628
5.1750598 -5.5834074 0.89622951
5.2306838 -5.5926423 1.1060939
5.7844672 -5.407537 0.95263451
6.0083609 -5.2289505 0.93470269
-2.8460531 -4.8568325 0.95817363
-2.5724447 -4.9230385 0.97995883
-2.2699444 -5.1078272 1.0172614
5.9765396 -5.1982794 0.96773809
6.1111531 -5.0179682 0.95265472
-3.2523258 -4.4477339 0.98031783
-3.0115633 -4.5986366 0.99400562
-2.737848 -4.7623415 1.0094835
5.9672575 -4.494195 1.0305138
6.0324721 -4.4278603 0.91836196
-3.7326877 -4.0875645 0.97653437
-3.4362705 -4.2833381 0.97697961
6.149231 -4.2885375 0.91815794
-4.4317489 -3.6229031 0.98484188
-4.2091222 -3.7598789 0.98129892
-3.9249804 -3.9504685 0.95582145
-5.2537966 -3.2391148 0.97859854
-4.9914222 -3.4147427 0.98660016
-4.6054912 -3.5086443 0.98384738
-6.263999 -2.8342435 1.0189461
-5.7634778 -2.9191167 0.97141945
-5.4250674 -3.0926547 0.99314982
-5.1805425 -3.1766615 1.1428641
-6.8135543 -2.4090803 0.95144022
-6.4670362 -2.4590449 0.99892175
-6.1905661 -2.5864372 0.99087894
-5.9400797 -2.7511485 0.95567268
-7.2537236 -2.0529082 0.92421114
-6.9316673 -2.0915239 0.97362745
-6.6249609 -2.2744181 0.98835248
-6.3379488 -2.3102653 0.99580538
-7.6262221 -1.6943535 0.89814687
-7.3959665 -1.7718061 0.97399735
-7.1148801 -1.9290931 0.99264091
-16.056034 -1.2778194 0.92187881
-15.977965 -1.2089198 0.91471875
-7.7292976 -1.3021228 0.98376602
-7.5347404 -1.4671907 0.9840799
-15.875734 -1.0001745 0.90738475
-8.4364967 -0.82362461 0.97384828
-8.1950827 -0.97861332 0.97271818
-7.8898592 -1.1384169 1.0095146
-15.702628 -0.73190188 0.89377207
-15.555416 -0.54203367 0.92917514
-8.9237738 -0.49027473 1.0077705
-8.6276464 -0.67719918 0.98128432
-8.2303905 -0.66863793 0.86245567
-7.9884262 -0.79794329 0.809663
6.1855893 -0.5044902 0.97639066
-15.282506 -0.21357363 1.0492244
-9.8172827 -0.059126597 1.0040528
-9.387435 -0.17286029 0.98313427
-9.126832 -0.35066035 0.98339337
-8.6501341 -0.2825641 0.9072364
6.277287 -0.20327827 1.0161856
6.4118586 -0.041442245 1.0874498
-15.025196 0.19878961 1.1077594
-10.46345 0.36453402 0.98381561
-10.195137 0.20034984 0.97227067
-9.9071436 0.063561596 1.056757
-9.5406723 0.33994544 1.0224053
6.3478289 0.07277 1.1217055
6.4344001 0.15496834 1.0871568
-14.846019 0.47125581 1.1905485
-14.671805 0.61561471 0.8779735
-10.898019 0.70887214 1.0355586
-10.599493 0.5452289 1.0306641
-10.261119 0.53142542 1.1178745
-9.9740372 0.48003173 1.0888422
-14.560472 0.94684833 0.84002221
-11.616695 1.1848439 0.84318638
-11.381509 1.0844859 0.96756375
-11.082145 0.9110257 1.0004922
-10.645666 0.89598435 1.1315423
-10.342226 0.82540643 1.151396
-14.61989 1.3863146 0.88745487
-14.094782 1.4915317 1.0087419
-12.063396 1.562858 1.0021785
-11.780916 1.3811419 1.0027813
-11.526959 1.2436454 1.0403472
-13.967077 1.6033247 1.130294
-12.464451 1.8901215 0.98361897
-12.236646 1.7273561 1.0365425
-11.921178 1.6502483 1.0130215
-13.805039 2.3675973 0.85242659
-12.926015 2.3230219 1.0376186
-12.6214 2.1369479 0.99374545
-13.795056 2.4150097 0.85562164
-13.250173 2.6177781 1.0245748
-13.120473 2.5904014 1.0116478
-12.643703 2.5524266 1.149648
1.430498 2.7600784 0.92032123
-13.22141 2.8356159 1.1451011
-12.993019 3.0084932 1.0313581
-12.798065 3.1854758 1.0318137
1.1591498 2.987206 0.93634588
1.2911112 2.9423213 0.9241243
-12.885404 3.3023853 0.97850758
-12.675111 3.43608 1.0528911
1.1905628 3.2200506 1.0164268
1.3819575 3.3456473 0.98041975
-12.822675 3.609911 0.81517857
-12.505633 3.7359202 1.0153296
-12.333298 3.9159827 1.0481645
1.4591011 3.621253 0.91112822
-12.459098 4.0665073 0.80264771
-12.149122 4.1993203 1.0545448
-11.991866 4.3963089 1.1083745
-12.036853 4.4537592 0.99512291
-11.867232 4.6111341 1.0310682
-11.683759 4.9249387 1.0142523
-11.481726 5.0810194 1.026479
-0.47859398 5.1160951 0.9458704
-0.34902126 5.1115742 0.99154752
-11.651446 5.2519217 1.1323473
-11.333352 5.372086 1.0155212
-11.170555 5.5582132 1.0017406
-0.44617492 5.247066 0.8816182
-0.31367809 5.2614551 0.88146466
-11.264637 5.6957669 1.1030782
-11.009715 5.8071175 1.0140073
0.32801428 5.890974 0.96315575
0.50023246 5.8831172 1.0021229
-10.840148 6.051425 1.0290381
-10.700915 6.2367144 1.0365371
-3.7042913 6.2932181 0.96555322
-3.4147351 6.2426467 0.95971376
-3.1239007 6.3159308 0.80609781
0.38256672 6.0188851 0.91425943
0.49231622 6.0501165 0.90618098
-10.504084 6.5503759 1.0396501
-10.355403 6.7344308 1.0197401
-3.2551796 6.4704819 0.96887618
-3.1408989 6.5478449 0.96517354
-10.405607 6.8147573 1.1474571
-10.179438 7.0096331 1.0387219
11.162479 7.1959743 1.0399315
11.368102 7.1241994 1.0352691
-10.029799 7.2388949 1.0424974
-9.87572 7.4248619 1.0233727
10.654522 7.5061255 1.1182218
10.981076 7.4006233 1.0599759
11.307138 7.2712455 1.0226126
-9.6852369 7.718328 1.0150419
-9.5371647 7.9108343 1.0218505
9.9663229 7.9753108 1.05783
10.210075 7.8485808 1.0686013
10.556085 7.7120361 1.03772
-9.358695 8.1941252 1.0430197
-9.1870375 8.3827152 1.0595452
9.4804564 8.3191643 1.0358598
9.7807674 8.1669579 1.037643
10.105364 8.0576649 1.0088676
-9.2325439 8.4488859 0.9503991
-9.0566082 8.6148615 1.0377773
8.7769279 8.7927341 1.0472246
9.0092964 8.6552267 1.0233291
9.3272171 8.4916172 1.0171461
-8.8669491 8.8810024 1.0481796
-8.7038279 9.0730009 1.0099378
8.2999859 9.1302071 1.025149
8.5867319 8.9357901 1.0242075
8.8792191 8.8598957 0.99847794
-8.5183926 9.366086 0.99990481
-8.335165 9.5098019 0.91759324
7.800962 9.4744625 1.0313572
8.1122122 9.2630472 1.0186871
-8.4166498 9.6053925 0.82145756
-8.2189007 9.7892923 0.98977649
-7.9606709 9.871603 0.92081428
7.1274152 9.9550829 1.0309998
7.3839374 9.7873278 1.0310802
7.6962214 9.6759834 1.0326134
-8.0849361 10.036028 1.0515404
6.64992 10.300513 1.045301
6.9490757 10.105442 1.0372052
7.2034912 10.028166 1.0387
5.9634933 10.766164 1.0398986
6.2002578 10.614079 1.040573
6.4694529 10.445189 1.0395898
5.4798622 11.112765 1.0579871
5.7748609 10.912625 1.0507692
6.019269 10.806264 1.054522
4.7745838 11.583207 1.0944176
5.0126348 11.434988 1.0775684
5.2890449 11.253717 1.0630689
4.2979069 11.919888 1.1075181
4.5932622 11.724337 1.0960684
4.8156633 11.61038 1.0862883
3.556452 12.37987 1.1531278
3.8026569 12.258369 1.1221441
4.0924501 12.063314 1.1124952
3.1151743 12.742719 1.1310933
3.4025381 12.535546 1.1289037
3.6316421 12.417048 1.1259395
2.3756876 13.17495 1.1984866
2.6134043 13.072845 1.1324754
2.9158502 12.876771 1.1414073
1.9377922 13.549951 1.0757215
2.1917052 13.375902 1.091681
2.4126027 13.212915 1.0648782
1.1371354 13.96674 0.82141668
1.4400767 13.884748 0.9705373
1.7307205 13.693604 1.0187831
0.71959728 14.33205 0.92181051
1.0125887 14.185163 0.95503414
1.2449503 14.030879 0.9856391
0.37958992 14.454371 0.86601764
0.60008687 14.446392 0.92427605
-1.7005 16.351679 1.084263
-1.5953965 16.370249 1.085894
-2.5846584 16.656076 0.97932398
-2.2291763 16.612534 1.056914
-1.8821255 16.476637 1.09961
-3.3115077 17.136778 1.0752531
-3.0007961 16.944202 1.0294164
-2.5559926 16.895248 1.120936
-2.3723102 16.847324 1.1457119
-3.7668524 17.462534 1.0829457
-3.4775455 17.279362 1.0790938
-4.170083 17.78784 1.0743108
-3.9296455 17.645132 1.1046849
5.0205836 -11.674447 1.242381
4.7124629 -11.51676 1.2163023
5.1463146 -11.564563 1.2369517
5.2063208 -11.57251 1.2400202
5.8043957 -11.239975 1.4429412
5.1655216 -10.826294 1.4524528
5.4053731 -11.014216 1.4566727
5.8331399 -11.13245 1.4338834
4.2675018 -10.497082 1.5272698
4.6068888 -10.60516 1.4876342
4.848671 -10.716469 1.5877032
3.9570904 -10.243783 1.3590653
4.0875282 -10.280583 1.3392173
3.4725692 -9.6447248 1.4436854
3.682368 -9.8054848 1.5763175
3.0500443 -9.3277597 1.4330429
3.3218598 -9.5098944 1.4353355
1.5582942 -8.8294067 1.5100899
1.6916089 -8.9427328 1.5345987
2.3549516 -8.828001 1.3954984
2.5806665 -8.9900236 1.417125
2.8552294 -9.166543 1.4727143
1.3545266 -8.6632204 1.4741043
1.8983716 -8.4813938 1.3723027
2.1716361 -8.6832151 1.3984066
1.5682174 -8.2433052 1.3105704
1.7183776 -8.347374 1.3950492
4.3258543 -8.0998335 1.2469883
4.6386042 -8.1427565 1.4221873
0.67747223 -7.6904421 1.2870371
0.84638423 -7.8291917 1.3162156
1.3020312 -7.6520128 1.3806397
4.5031362 -7.8920827 1.2368971
4.8038197 -7.975769 1.418433
0.36434734 -7.4374146 1.2345047
0.633201 -7.3959813 1.3365527
0.99471223 -7.4382911 1.43584
1.2233418 -7.5789013 1.439219
4.1377749 -7.2859359 1.4799469
4.8792787 -7.2306004 1.3776141
0.53427142 -6.8200793 1.3936067
4.7274318 -6.9709606 1.3014901
4.9693427 -7.127614 1.3320733
-0.89741039 -6.4609437 1.5425396
-0.49544218 -6.5070882 1.4459848
-0.2036971 -6.5750985 1.4051282
0.19456254 -6.5845828 1.374029
0.45882633 -6.755991 1.3798609
4.1651888 -6.533144 1.2139776
4.6447353 -6.4875598 1.3808736
-1.335978 -6.1061893 1.4531103
-0.94759548 -6.1209998 1.3997933
-0.63880271 -6.2897696 1.352669
-0.36301252 -6.3851128 1.3454386
3.8575163 -6.2854338 1.4285729
4.7440658 -6.3059397 1.4262779
4.8809862 -6.1214509 1.3456895
-1.6584642 -5.6161647 1.3647895
-1.3891766 -5.759984 1.3745023
-1.1176814 -5.94034 1.3946396
5.0655007 -5.8166471 1.3701197
5.5289268 -5.7101564 1.4394414
5.6346064 -5.6434259 1.2885162
-2.4117227 -5.2202282 1.2483819
-2.1190884 -5.3008566 1.3208123
-1.8008511 -5.462544 1.3282647
-1.5759839 -5.5777054 1.2898473
5.1732464 -5.5956526 1.4863508
5.207973 -5.5942998 1.21219
5.788887 -5.3978062 1.3964447
6.0066032 -5.2210355 1.2454815
-2.840215 -4.8541059 1.2187485
-2.5982966 -4.9630132 1.3006419
-2.2863181 -5.1253395 1.3274095
5.9779792 -5.1711059 1.4407701
6.0982604 -5.0082431 1.4314494
-3.2582352 -4.4468064 1.3035967
-3.011611 -4.6250496 1.3114556
-2.7595494 -4.7661738 1.3505417
5.9420319 -4.489161 1.4641968
6.0905657 -4.4374914 1.3470441
-3.7564757 -4.1089406 1.3218905
-3.44872 -4.3066893 1.2943804
6.1867895 -4.255116 1.3907529
-4.463552 -3.6413534 1.3465409
-4.2039509 -3.81182 1.3339669
-3.9415789 -3.9600451 1.2831825
-5.2569895 -3.24227 1.2247511
-4.976161 -3.3384902 1.3454112
-4.6482239 -3.5089672 1.3710241
-5.7458587 -2.8367486 1.2558843
-5.4130073 -3.0162821 1.3339223
-5.1410336 -3.1598346 1.4533991
-6.4365292 -2.4276121 1.26483
-6.1398854 -2.5221782 1.3154137
-5.8667965 -2.6789095 1.3058316
-6.9051461 -2.0517688 1.2604225
-6.5936399 -2.1833489 1.3682141
-6.2897 -2.3260725 1.3644928
-7.3176107 -1.7168632 1.3288352
-7.030117 -1.8504165 1.3627827
-6.7744026 -1.9812204 1.4461988
-7.7523322 -1.2956157 1.4109271
-7.4662895 -1.4677858 1.402648
-7.1134229 -1.5173016 1.468973
-8.4430237 -0.83017296 1.391492
-8.20858 -0.98690635 1.3785431
-7.8916368 -1.0958664 1.3427062
-7.552556 -1.1566944 1.5747517
5.920764 -0.83916855 1.490478
6.0711632 -0.96906209 1.5154719
-15.512056 -0.4483397 1.2891918
-8.9425697 -0.49672624 1.3964088
-8.6360626 -0.67827523 1.3900464
-8.1916037 -0.65695417 1.3069249
5.9572754 -0.73916268 1.4957093
6.1678405 -0.52287412 1.4655706
-15.480618 -0.29706436 1.50743
-9.6490974 -0.02208752 1.382633
-9.3959293 -0.17379943 1.3796155
-9.1375799 -0.35483894 1.3388427
-8.6706715 -0.28955984 1.4104251
6.2508187 -0.21200599 1.3794905
6.4058666 -0.0060176551 1.260806
-15.234571 0.16299665 1.481595
-15.096179 0.15125474 1.2597734
-10.136577 0.29491529 1.3405236
-9.8230295 0.11458454 1.3908486
-9.5573082 0.34634939 1.5798569
6.3908172 0.018381454 1.4308424
6.4111447 0.04760886 1.4351877
-14.833918 0.47576076 1.2829906
-14.706302 0.65887588 1.3061256
-10.856439 0.76706076 1.3196436
-10.577357 0.65285438 1.3979366
